# .PCD v0.7 - Point Cloud Data file format
VERSION 0.7
FIELDS x y z rgb
SIZE 4 4 4 4
TYPE F F F U
COUNT 1 1 1 1
WIDTH 1461
HEIGHT 1
VIEWPOINT 0 0 0 1 0 0 0
POINTS 1461
DATA ascii
3074.6667 554.66669 -469 10747648
3130.5625 558.25006 -463.9375 16186368
2669.3391 621.30505 -477.23724 34047
2723.7146 617.57141 -463.42856 39924
2787.5002 613.24994 -466 40179
2817.5 621.33337 -465.00003 49151
2871.5 620 -463 38143
2902 636 -465 65501
2964.3333 631 -461.33331 61171
3035.5 645 -463.50003 2419071
3054 645 -461 3669760
2644.3335 675 -453.33334 21759
2680.2502 682.68744 -469.8125 27135
2712.7224 681.38892 -482.11108 37371
2783.2002 686.20001 -488.20001 36351
2830 675.33331 -462.99997 61590
2872 684 -468.75003 320405
2924.8333 683.33331 -466.66666 851771
2989 651 -477 58879
3031 667.11108 -462.44446 1179426
3066.1111 665.22223 -466.33334 6749952
2681.6665 710.99994 -453.66669 24063
2722.2061 728.17657 -486.02939 26111
2762.6665 738.25 -484.00006 26367
2822.2502 701.75 -474.50003 899746
2882.2498 709 -479.74997 58801
2929.2 717.10004 -481.40002 2750545
2965.8752 717.62494 -482.125 2490204
2599 794 -489 24063
2616.6663 774.53339 -494.13336 27391
2684 787.83337 -490.16666 52988
2724.7061 771.85303 -483.85291 35068
2762.3533 778.64709 -460.73526 34813
2614.2222 810.33331 -490.44446 31743
2682.0005 811.85718 -487.42859 60654
2720.3633 816.81818 -480.72733 43512
2771.1667 816.61108 -470.33331 28665
2820 840 -493 35071
2645.3999 892.20001 -483.80002 26623
2662.3076 886.07697 -492.53845 23295
2721.5 866.75 -497.25 28415
2771.6001 870.19995 -496.19998 24575
2848 895 -494 8959
2859.25 892.74994 -460.75 4151999
2934 877 -466.49997 54510
2966 896 -467 65292
2646 902.50006 -486 33791
2668.6001 911.20007 -483.19998 30463
2720.1665 924.33331 -485.33331 27647
2774 927 -487.83334 28415
2825.7107 921.15381 -476.9808 23295
2856.9998 904 -474.39999 9983
2947 910 -468 16776192
2962 932 -467 65526
3026.5 926.625 -485.12503 3143979
3063.5002 934.5 -492.5 9960960
2735 953 -495 45823
2772.7856 961.42859 -474.92859 24063
2807.3186 978.13629 -468.36359 20991
3067 962 -497 45823
3101 964 -497 16776192
2824.9089 1009.2727 -480.09088 8959
2896 1045 -488 11007
2877 1097 -461 6749952
2939 1059 -471 26367
2964 1061 -479 37119
3011 1087 -493 35071
2793 1125.7142 -471.28574 27903
2822.3 1126.7 -471.89999 33023
2884.3999 1131.4001 -486.80002 34047
2915 1129.875 -488.375 43233
2986 1145 -495.5 65390
3007 1123 -480 65292
3062.5 1131.5 -493.5 65398
2842 1173 -473.5 3915647
2870.3335 1167.3333 -488 46561
2934.8333 1173.1666 -480.66666 62145
2998 1153 -483 16776192
3037 1151 -496 7012096
2817 1201 -451 65356
2926 1220.5 -473.5 5439264
3027 1240 -496 12582656
2945 1272.5 -467.5 65331
2975.5 1260.9999 -482.50003 3079936
3020 1272.0001 -489.5 4587264
3033.1997 1316.7999 -475.79999 5046016
3071.75 1342 -485.25 6291200
3072.9463 1373.7632 -478.07892 8322816
3069.1038 1423.4137 -481.06891 7732992
2826.2141 1494.8569 -479.57141 48603
2871.1538 1496.077 -475.61545 34815
2914.75 1498.75 -484.24997 35071
3065.917 1474.8334 -479.79172 7667456
2824.7502 1510.3751 -482.74994 124044
2872.7859 1510.5714 -483.64288 36351
2923.7334 1503.7332 -476.66666 35071
2971.6843 1507.4738 -475.1579 34559
3019 1511.2001 -474.59998 35071
3061.6152 1511.923 -474.23077 6749501
2823 1564.5 -497 38143
2881.5999 1577.4 -499.39999 17919
2921.2498 1583.75 -493.75 32731
2959.5 1586.9999 -476.5 458557
2814.1667 1636.3334 -496.83331 40703
2873 1649 -497 15359
2936 1615 -500 19711
2964 1609 -498 24063
3034.0002 1641.1667 -485.49997 60636
2824.2854 1675.1429 -497.28571 29951
2879.3335 1677.6666 -496.99997 15359
2917.2002 1678.9 -498.29999 15871
2974 1685 -498 22015
3035.9653 1678.1724 -476.93097 64463
2815.8572 1725.1428 -497.42859 30975
2871 1724 -497 13311
2909 1723 -498 14335
2978.0002 1720.75 -499.50003 26111
3032 1722.6948 -482.94449 61912
2797 1764 -500 45823
2821.5999 1769.6001 -496.80005 22783
2868.6001 1781.4 -498.20001 13311
2931 1771.5 -498 15359
2971 1766 -499 22015
3026.5928 1776.9258 -480.96289 62436
2792.8574 1819 -499.28574 41727
2811.9231 1826.7694 -497.38461 27135
2880.25 1834 -498.75003 14847
2921 1819.9999 -498.5 15359
2957 1805 -499 17663
3024.0862 1825.7999 -478.25708 63469
2791.7334 1882.5333 -498.20004 38143
2823.0002 1876.25 -498.125 19199
2873.3999 1875.7 -498.99997 15359
2926 1879.5 -499 15359
3022.0203 1876.7347 -477.06119 63477
2797 1902 -496.5 30463
2829.7271 1914.9999 -497.90909 15359
2869.0835 1930.75 -499.58337 15359
2928 1929 -500 17663
2956 1913 -500 19711
3021.5198 1924.2885 -476.4231 63477
2884.7502 1959.5 -499.50003 15359
2909.6667 1971.0001 -500 15359
3019.6335 1975.2197 -470.92676 63482
3013.7219 2024.9999 -478.51898 61949
3010.0596 2060.03 -472.55222 59391
3345 -2311.5 -413.99997 18687
3358.0229 -2314.9089 -433.29544 22271
3285.5 -2256.5 -402.5 9983
3334.4546 -2259.4546 -426.72726 13311
3357.3894 -2284.7498 -431.80554 27635
3292.5999 -2233 -425.40002 7935
3312.8 -2241.6997 -429.09998 8447
3360.4998 -2227.3125 -424.8125 65367
3230.5 -2184 -447.5 6655
3348 -2164 -409 65360
3354.2781 -2174.8333 -425.27774 65353
3348.3525 -2125.8235 -422.05881 65332
3351.4712 -2125.2354 -422.29413 65335
3346.2085 -2075.2915 -419.125 65310
3350.5 -2077.5 -431.16666 65318
3342.5337 -2025.9664 -427.86667 65298
3338.6921 -1975.9231 -431.00003 655104
3333.2122 -1923.7881 -432.03033 2817792
3328.8005 -1875.52 -428.35995 3407616
3325.0625 -1824.0624 -430.5 5701376
3321.4348 -1772.8259 -433.43478 7077632
3316.2817 -1724.6877 -427.8125 8060672
3308.5388 -1677.423 -424.96152 8388352
3298 -1617.1665 -430.5 9305856
3302.1428 -1628.2141 -424 8584960
3296.6504 -1569.3 -431.60001 8978176
3300.7144 -1585.4285 -436.28571 8650496
3294.1931 -1528.2905 -428.99997 8257280
3301 -1530 -401 8126208
3289.9666 -1475.8667 -430.6666 8388352
3285.3828 -1425.8826 -428.79413 8847104
3284.1611 -1375.871 -426.29034 9436928
3280.9998 -1323.9144 -428.42859 10157824
3276.9534 -1276.6975 -421.23257 10813184
3270.0366 -1227.037 -416.00003 11206400
3267.3789 -1175.7584 -427.79312 9895424
3263.5835 -1125.6943 -424.33334 10157824
3260.9097 -1076.4849 -429.87878 10288896
3256.8525 -1023.647 -424.05887 11009792
3248.0627 -969.25 -427.75 11271936
3252.363 -976.06042 -426.09088 10812928
3247.75 -925.30011 -422.84998 13893120
3251.0554 -927.33331 -423.88889 10878464
3245.9783 -873.422 -426.11121 13368832
3250 -886.00006 -432.5 12844800
3243.4998 -825.66675 -424.89587 14155008
3250 -846 -407 7864064
3236.9336 -773.37781 -424.48889 12647680
3230.4404 -724.44012 -425.48004 13368576
3226.4543 -673.89087 -425.76364 13237504
3223.1543 -625.4422 -425.44238 14417152
3219.1514 -576.04541 -424.25757 15138048
3215.8596 -524.93756 -425.96872 15138048
3211.7605 -475.63379 -425.52121 14810368
3209.2048 -424.98621 -424.76709 15138048
3198.333 -368.66666 -434 14876416
3204.1482 -375.97293 -424.50009 15596800
3196.7959 -318.22446 -423.6123 15793408
3202.4006 -333.74283 -427.57141 16251904
3194.2388 -276.16669 -425.96436 15662080
3200.5 -291 -417 16776192
3192.4949 -225.55058 -424.1911 16317440
3190.4734 -175.82471 -426.0618 16645120
3184.0393 -127.31425 -425.80002 16579584
3180.425 -75.925934 -424.12964 16317440
3177.2529 -24.096493 -425.59653 16710656
2975.4001 47 -425.79999 43771
3040 45 -438 35071
3080 44 -434 56831
3129.875 43.125004 -433.125 65419
3172.0205 23.105261 -424.86319 14023689
2964.1741 76.243477 -424.92169 130703
2969.0247 110.9 -426.05002 51911
3023.6665 123.33334 -406.33331 19711
3063 125 -433.5 23039
3128.125 129.5 -423.49997 32255
3162.8792 141.21213 -421.93942 10220850
3160.49 174.2941 -425.32349 16317440
3149 227.33336 -423.66669 16776192
3156.2153 225.03064 -425.41837 15793408
3147.6956 277.21735 -421.39127 16514048
3154.3213 274.80359 -427.55356 15990016
3145.8423 327.8158 -423.76318 16382976
3151.9375 320.16669 -426.95844 15531264
3145.6616 376.0845 -425.61969 16055296
3151.0833 362 -419.99997 15465728
3142.1265 423.98749 -425.29117 15924480
3139.5642 472.76053 -425.46466 16514048
2725.6472 525.64703 -409.52939 53234
2771.9089 526.54547 -425.81818 50931
2818.1426 539 -440.57147 35826
2879.6665 540.33331 -443.66669 65394
2940 541 -433 3669760
2973.7144 544.57141 -428.99997 6225450
3135.1348 524.4328 -425.92535 16186368
2719.1873 569.125 -434.1875 30971
2775.6843 571.26312 -432.73685 27647
2819.7778 572.22223 -435.77777 35583
2879.6665 583 -413.00003 786219
2915 587 -407 65339
3025.4998 551 -444.5 13696256
3080.1665 559.33331 -417.83331 8977920
3131.1055 556.63159 -427.10526 16186368
2688.1538 622.96161 -429.26926 31227
2718.6113 624.22223 -418.44446 26367
2771.5 631.5 -430.5 46847
2828 630.66669 -417.99997 58833
2881 618.25 -409.75 65445
2938.5 625.75 -416.5 65328
2977.7498 622.75 -426.08334 2948904
3025.6667 631.77771 -439.00003 3276576
3056 633 -437 1703680
2625.8623 671.82758 -428.75861 31991
2663.25 684 -422.24997 36863
2724.75 657.25006 -428.5 37119
2771.9998 661 -435 51133
2816.9998 678.99994 -436.42856 63695
2877.4998 675.33331 -441 65465
2945.5 660 -433.5 65332
2971.6001 663.20001 -441.39999 1376061
3033.5 664.5 -448.49997 4914944
2631.5 707.24994 -405.75 65420
2670.7141 720.57147 -424 47067
2723.6252 721.37494 -428.875 34559
2768.7141 739.14282 -443.14288 26879
2867 704 -444 65513
2620.5 766.75006 -407 62166
2672 791 -417 49029
2729.5 762.50006 -429.00003 47871
2765.1001 767.15002 -443.04999 42747
2638.5 817.00006 -406.5 4652868
2666.75 827 -413 7991615
2712.9998 812.75 -422.25 6740031
2764.75 826.50006 -436.5 4053591
2822 844 -442 65441
2598 868 -404 65399
2629.5715 881.42859 -410.28568 65430
2670 877.50006 -418.5 65467
2703 862 -428 45823
2763.5 876.5 -435.5 8372863
2826.0002 863.00006 -444 13696256
2583 914 -401 65403
2639.9998 929 -413 62177
2662.9998 923.3999 -420.20001 55806
2723 927.5 -431.25 51199
2768.0002 922.5 -439.49997 37119
2809.333 930.33331 -449 29951
2644 964 -408 14221056
2676.7502 978.5 -418.25003 14023936
2732.6667 966.33337 -433.66669 34047
2776.7998 974.40002 -443.99994 25855
2811 999 -450 13311
2584 1021 -404 65386
2625.75 1036 -410.5 1048398
2676 1031.5 -417 13565184
2716 1008 -429 2555648
2757 1033 -438 65394
2817 1043 -445 16776192
2582.6667 1076 -403 65370
2633.9998 1064.5 -413.99997 327483
2660 1089 -418 65305
2712.4998 1079 -429.25 1244287
2791.5 1088 -442.5 8377215
2805 1060 -448 65280
2613 1108 -411 65386
2674.5 1123.5 -422 65367
2715.3333 1126 -429.99997 1638186
2776.5 1127.5 -443.5 4770943
2812 1120 -450 41471
2716 1165 -417.50003 65368
2773.6665 1173 -435.00003 1179434
2790 1204 -434 65356
2833.5 1224.5 -445.50003 65356
2892 1260 -406 10616576
2988 1298 -407 7864064
3070.5715 1342.4286 -425.71429 8126208
3073.8743 1372.5938 -423.03122 7601920
3068.9758 1425.3903 -421.46344 7274240
2827.5 1494.4999 -427.37503 45536
2874.3748 1497 -412.37497 35327
2920.3333 1498.3334 -413.66663 35071
3066.5007 1475.0953 -427.35715 8322816
2836.2002 1512 -413.99997 714553
2872.1667 1519 -420.5 705703
2923.3999 1502.6 -424.60004 35071
2975.1536 1505.6924 -421.69232 35071
3024.4551 1510.4546 -428.90909 35839
3062.6665 1509.5333 -429.80002 6945058
2883.0002 1577.6666 -412.66669 65333
2920.6667 1580 -420.16666 130847
2844.5 1639 -402.5 65466
2873.0002 1618.3334 -409.44446 65376
2930 1643 -421 1179392
2972.9998 1614.3333 -434.33331 196394
3022.5 1639.5 -443 65456
2845.5 1659 -401 65483
2907 1676 -415 851712
2980 1679 -433 65352
3031 1664.7501 -447.99997 65473
2868 1723 -405 65403
2929.3335 1716 -421 65312
3030 1715 -446 65475
2875 1765.3331 -406.66666 65411
2912 1779.3335 -415.66666 65337
2956 1788 -427 65356
3017.25 1775.25 -443.25 65473
2864 1809 -403 65454
2926.3333 1826.6667 -419.66669 65367
2965 1819 -430 65411
3018.4998 1836 -444.50003 65503
2895 1867.0001 -410.5 65443
2929.375 1878.7501 -415.875 65408
2984 1872.3331 -435.33334 65448
3016.1001 1878.9001 -445.09998 65516
2941 1907 -413 65433
2973.5 1914 -427.5 65469
3015.2502 1941.9999 -436.75 64245
3017.9609 1980.8237 -427.70578 62715
3014.5935 2025.2969 -425.00003 61694
2992 2064.0002 -404.25 61439
3009.75 2064.8748 -428.22504 59903
3393 -2355 -358 255
3427.2856 -2366.5715 -360.71426 255
3465.0002 -2383.5 -360.5 255
3336.5002 -2317.9998 -357.50003 255
3369.7002 -2334.7998 -355.50003 255
3422 -2345 -361 255
3244 -2253 -354 255
3278.6665 -2268.8335 -358.16669 255
3308.667 -2293.3333 -358 255
3355.9282 -2263.0715 -360.85715 32237
3187 -2209 -375.50003 5631
3225.417 -2226.6255 -367.83328 1279
3266.6252 -2218.375 -379.5 1279
3312.5 -2235.0002 -356 255
3359.5918 -2229.7549 -373.89792 63597
3123.375 -2160.875 -367.3125 1023
3166.4443 -2191.3333 -376.55557 4095
3226.8333 -2180.1665 -372.83337 3327
3258 -2193.9998 -387.5 8959
3347.4998 -2153.9998 -385 65350
3353.5654 -2178.3477 -381.78262 65351
3079.0864 -2124.522 -359.82608 255
3122.2502 -2132.25 -359.24997 255
3165.0002 -2135.3333 -364.49997 255
3348.2217 -2123.2224 -379.11111 65324
3350.833 -2123.0835 -383.29169 65324
3085 -2097 -356 255
3346.75 -2076.6873 -368.875 65308
3351.3335 -2082 -370.33331 65306
3343.5002 -2025.3573 -372.42859 65288
3338.2942 -1972.2354 -376.94116 589570
3332.9521 -1925.9048 -368.85715 3079936
3328.9644 -1875.3569 -374.96429 3997440
3326.1177 -1826.559 -374.23523 6160128
3321.6069 -1776.5358 -367.67856 7405312
3316.0557 -1725.7222 -368.88889 9174784
3299 -1657 -377.5 9371392
3306.1428 -1674.4763 -376.7619 9043712
3297.75 -1623.75 -367.75003 9109248
3302.1926 -1625.1156 -375.26926 7864064
3296.0908 -1572.7272 -369.18182 8781568
3300.333 -1586.8334 -373.99997 7405312
3294.5913 -1522.9092 -372.95456 9633536
3288.3108 -1473.207 -377.82755 8847104
3286.8582 -1425.8286 -372.14285 8584960
3283.9707 -1377.3529 -371.91174 9109248
3281.322 -1326.7742 -369.96774 9895680
3276.3813 -1279.4762 -367.90475 10092288
3270.0325 -1224.2334 -381.86673 11337472
3267.1348 -1174.4053 -377.02701 11403008
3263.0305 -1126.4847 -375.87875 11533824
3262.3337 -1075.1539 -381.33331 11599360
3249 -1004.5001 -362 12386048
3257.4653 -1027.2556 -370.0697 10747648
3248.9998 -987 -375.33334 12517120
3252.4702 -975.32349 -371.17645 11337216
3246.792 -915.12494 -382.625 11795968
3251.3887 -933.61115 -378.44446 12779008
3246.4641 -874.58539 -377.68292 13106688
3250.6665 -868.66663 -357.66666 11075328
3242.3677 -825.73474 -374.59183 13958400
3236.3008 -776.73999 -373.54001 14155008
3230.7844 -726.98041 -376.23526 13696256
3227.0708 -675.99994 -375.89474 13499648
3221.3896 -626.30511 -376.32205 9035576
3259 -631 -355 255
3198 -566 -353 8959
3218.4749 -575.57623 -374.42374 7723339
3189 -505 -352 4607
3214.5779 -523.8125 -378.54688 10739510
3198 -497 -356 8959
3213.2571 -474.97302 -376.08105 11332903
3199 -402 -394 13696768
3209.1165 -426.07797 -374.77924 14810368
3197.9998 -363.53848 -373.30768 15138048
3204.6619 -376.93237 -375.70279 15596800
3196.7078 -321.77582 -377.06903 15924480
3201.2422 -331.78793 -370.54547 16382976
3195.2988 -274.45746 -376.12769 16251904
3200.5 -290.5 -376.75003 16776192
3193.1321 -226.60608 -374.20206 16055296
3200 -241.49998 -353 16776192
3187.3542 -174.43637 -375.86368 16514048
3200 -196 -381 16776192
3184.5059 -124.30706 -375.91345 16710656
2982 -56 -353 9764608
3007.7139 -67.428574 -359.42859 14613504
3076.4001 -71.199997 -368.40002 16514304
3129.9998 -72.000008 -377.42856 16710656
3176.5942 -79.91893 -386.45944 16317440
2946 -3 -351 16776192
2976 -25.857141 -354.42856 13499648
3020.2498 -15.500001 -363.5 15203328
3079 -26 -371.5 16776192
3133.0002 -24.727272 -380.18179 16514048
3171.9353 -23.096773 -393.1936 16645120
2934.5002 30.000002 -351 8387903
2974.1001 34.799999 -367.5 6807166
3022.375 31.5 -370.37503 7792747
3077.1665 22.166668 -374.83334 13957930
3131.375 25 -382.375 10485022
3168.3601 22.48 -393.60001 14875653
2921.7275 76.454552 -353.72726 65402
2965.9502 73.040001 -380.72 65174
2939.2 118.4 -355.39999 5045849
2969.3777 112.55556 -377.33337 1363883
3014.3335 125.16667 -371.99997 2662015
3054 130 -371 65382
3129.4287 140 -385.85715 11786056
3158.5554 140.77779 -394.11108 11861273
2946 155.99998 -353 12123392
2976.7275 173.63635 -359.18185 15006720
3024.8 177.2 -367 13696256
3080.9998 177.25 -375.50003 16186624
3133.1428 172 -385.85715 16448512
3157.4739 174.57895 -394.94733 16448512
2941 234 -354 14875904
2983.4543 224.90912 -361.09094 13303040
3014.3335 223.66667 -366.33334 15334912
3089.0002 222 -378.00003 16776192
3136.8 220.66667 -387.86667 15858688
3155.4375 225.56252 -397.49997 15203584
2932.75 273.125 -352.87503 12975360
2985.3333 274.33334 -362.66669 13893120
3021.75 279.49997 -368.75003 14352128
3074.6667 281.66666 -377.66669 16383232
3134.467 272.93335 -390.93332 16317440
3153.364 275.72726 -395.72723 16317440
2927.625 324.625 -353 11336960
2979 326.25003 -362.5 12582400
3018.9998 322.28571 -369.42859 14286336
3077 318.66666 -378.33334 16776192
3135.0908 327.59091 -392.31815 15793408
3154 310.00003 -398 14417152
2920.1426 374.14285 -352.71429 10157824
2956.5 369.49997 -359 13434112
3012.8333 376.16666 -369.33334 14679296
3077.3335 381.66666 -379.66666 16252160
3135.2351 375.35291 -392.94119 16382976
3151 355 -400 16776192
2914 416.49997 -352 9764608
2960.6667 427.16663 -361.16669 11730432
3021.9998 414.40002 -371.59998 15727616
3060 426.00003 -378.39996 16776192
3134.2349 422.11761 -394.47061 16382976
3015.5 463 -366.5 16776192
3083.5 476 -366.50003 15924480
3133.844 484.21875 -379.15625 15989760
2724.1082 530.43237 -383.13513 50933
2775.4548 533.09088 -375.18179 36863
2824.5654 528.3913 -371.65219 34047
2854 523 -374.33334 36351
2925.2 537.19995 -377 65469
2993 542.5 -371.5 65392
3019 545.33331 -376.00003 65329
3081.25 543 -363 982843
3132.6816 521.6969 -376.7576 14875904
2721.7695 565.15387 -362.69229 44524
2775.1335 586.66669 -370.8667 44273
2826.5 560 -384.50003 59869
2875.4001 580.59998 -386 65418
2930 564.71429 -366.57141 65415
2979 557.66675 -355.99997 65333
3022.833 559 -364.16672 786230
3077.4543 569.18188 -366.18182 5570091
3128 554.14282 -392.85715 13499648
2588.4548 644.27283 -376.13632 58573
2615.6665 641.00006 -376.11108 22271
2674 646.20007 -380.39999 22783
2725 643.99994 -397.39999 26111
2768.9001 620.76001 -384.12 51961
2822.3333 633.83337 -360.33331 30975
2864.4998 640.00006 -364.74997 45807
2910.6667 620.5 -372.83334 60597
2572.5454 672.54541 -373.2424 65365
2675.6667 652.66663 -376.33331 18175
2731.1819 657.72729 -378.99997 24063
2778.5833 661.75 -368.5 17148
2823.231 658.69238 -368.00003 28918
2869.875 664.12494 -376.12497 44010
2918 668.5 -373.625 52194
2969.2002 666 -388.60004 65406
3008.3333 682.66663 -382 652142
2562.0591 725.07465 -370.53735 65359
2600 719 -397 65339
2559.6731 772.4231 -373.6731 65364
2604 780 -397 3931904
2546.5 840.99988 -369.5 65376
2554.5806 826.05994 -373.28003 65364
2545.625 875.19995 -368.75 65392
2559.2141 871 -382.42859 65387
2539.4536 926.22656 -367.54718 65370
2569.5 911.5 -397 65354
2536.4324 973.13739 -375.66666 65376
2565.667 984 -395.66669 851730
2532.0767 1025.6666 -374.23074 65380
2565.5 1009.0001 -398.5 65364
2530.5808 1070.1936 -377.48383 64139
2552 1065 -398 65399
2559 1106.4999 -376 55548
2726 1179.5 -361 65343
2766.5 1199 -385.5 65307
2788 1205 -387 65284
2823 1228 -391 7012096
2926 1269.5 -376 9240320
3031.4998 1321 -378.5 9502464
3076.4001 1347.6 -373.39996 8650496
3074.4543 1376.9695 -376.63638 9240320
3070.4998 1422.4614 -377.96152 8191744
2827.0715 1494.9999 -384.64282 48091
2876.8333 1496.1666 -380.33334 35327
2913 1499 -353 35071
3066.0005 1475.5602 -370.60004 7732992
2832 1520.8 -381.47995 187780
2874.2666 1509.6666 -382.33334 39934
2927.5386 1504.3075 -380.53842 35327
2973.3748 1508.6875 -373.93753 35839
3022.3335 1511.9166 -372.24997 36095
3064.25 1510.9998 -368.56253 7143186
2836.2424 1575.0001 -377.72726 63405
2857.3999 1559.3999 -390.60004 55806
2837.2571 1623.6858 -377.42853 64946
2832.5 1675.3201 -377.48001 57014
2830.0413 1724.8977 -375.48984 57292
2823.1511 1775.8484 -365.93939 61611
2825.8333 1812.25 -361.41666 63909
2852 1832 -381 52479
2882 1858.5 -366.99997 65437
2922.9998 1887.0001 -373 64164
2944 1906 -388 65386
2970.1111 1925.2224 -366.44446 65467
2885.78 1989.9753 -362.17072 44799
2925.1858 1993.8148 -366.11108 46591
2966.177 1994.4117 -364.2941 46591
3016.7029 1980.037 -369.77774 63730
2896 2000 -379 51199
2932.7271 2016 -385.09091 56575
2978.1003 2027.25 -391.20001 57087
3009 2019.625 -391.12503 59133
2974 2053 -398 64252
3493 -2404 -308 255
3505.4998 -2404.5 -312.5 255
3392.4001 -2359.4004 -318.60001 255
3432.7646 -2378.0002 -314.79413 255
3470.8179 -2381.3638 -315.59091 255
3331.2222 -2313 -331 255
3368.2 -2318.9331 -332.79996 255
3413.2854 -2341.5715 -331.57144 255
3240.3335 -2255.6667 -324 255
3274.1667 -2279 -325.00003 255
3316.3335 -2271.8333 -326.50003 255
3360.5002 -2267.2144 -331.78568 37594
3191.1667 -2222.3333 -316.49997 255
3213.8 -2236.8 -317.79999 255
3287.4121 -2230.2939 -328.47055 255
3320.0002 -2241.6001 -327.40002 1535
3359.6665 -2224.6665 -328.96976 65358
3354.2964 -2175.4814 -321.66666 65341
3348.3333 -2114.8333 -313.66666 65336
3351.75 -2133.3123 -319.12503 65332
3347.3 -2068.8501 -327.69998 65312
3350.8752 -2084.25 -328.875 65318
3343.6838 -2025.3413 -324.78046 130832
3337.8269 -1975.8966 -329.48273 720642
3331.8235 -1922.2351 -327.70593 2948864
3329.6086 -1874.6084 -328.34787 4456192
3326.167 -1825.9445 -324.44443 5963520
3320.5002 -1775.5909 -328.68182 6946560
3317.6538 -1727.4614 -326.96155 8978176
3305.5171 -1673.8621 -322.13788 9043712
3298.5 -1620.5001 -334.5 9764608
3302.2666 -1625.5336 -321.19995 9699072
3296.8333 -1571.3888 -328.94449 8978176
3301 -1583.7501 -329.375 8453888
3294.29 -1523.3872 -327.93542 9436928
3301 -1543.9999 -329.5 8519424
3288.1338 -1475.6333 -321.53326 8716032
3286.4348 -1425.5653 -320.00003 8650496
3284.9231 -1373.731 -329.07693 9240320
3281.896 -1325.5862 -328.68964 10288896
3275.0269 -1274.7837 -329 10616576
3271.2305 -1225.8462 -328.12817 11140864
3266.8911 -1177.4325 -323.2973 11730688
3264.0728 -1122.244 -328.31705 11468544
3262.5498 -1075.2501 -324.02499 11468288
3249 -1043 -308 14810880
3256.1873 -1028.3125 -316.59375 12779008
3249 -981 -323 16776192
3252.4353 -976.17957 -327.25641 11206144
3247.0005 -920.39288 -329.46429 12975616
3251.6665 -933 -325.5 12779008
3246.9707 -876.90906 -328.03027 13762048
3250.3633 -881.54547 -320.36365 12779008
3241.8364 -823.34705 -323.69394 14417152
3234.7058 -774.7843 -325.33331 14548224
3229.9827 -723.66064 -327.9642 14744832
3228.1282 -681.66669 -327.6666 4504688
3014 -623 -305.5 4607
3191 -640 -321 255
3220.4285 -638.71423 -341.00003 424651
2825 -552 -301 255
2922.9998 -567.5 -317.5 1279
2961.5002 -569 -320.50003 255
3200 -588 -349 255
2825 -539 -302 255
2893.0002 -504.50003 -315 255
2912.7498 -524.25 -319.5 2303
3020 -513 -327 255
3107 -542 -337 255
3171 -529 -345 255
2835 -459 -308 255
2869.5 -480.00003 -312.5 255
2918.5 -498 -317 255
3186.2854 -472.28571 -334.57141 4095
3209.8459 -466.07687 -344.53848 43204
2813.5 -437 -305 255
2877.5 -436.5 -309.49997 1279
2972.6667 -424.66666 -306 767
3077 -414 -320 6655
3111.5 -413 -316.5 7679
3180.9165 -422.99997 -328.04169 16382
3209.2336 -413.96667 -329.19998 97229
2916 -391 -301 3327
2990 -394 -305 4607
3194.7498 -368.75 -333.25003 4835159
3207.6277 -375.95355 -324.65115 2660023
3197.1638 -317.69095 -328.21823 16251904
3203.282 -333.43484 -321.21735 10869572
3195.8186 -275.37659 -327.74026 16579584
3200.7141 -276.57147 -319.14285 16776192
3190.4558 -224.35718 -324.62503 16251904
3201.2 -235.8 -332.79999 16776192
3187.5996 -174.5 -324.44165 16514048
3185.1099 -125.08028 -324.70804 16710656
2797.3335 -63 -304.33334 65445
2807.6086 -61.956512 -313.04349 65422
2851 -53 -328 65377
2920.9443 -70.833336 -334.50003 1769249
2968.6667 -74.111115 -338.77777 8060672
3035.1667 -85.833336 -314.33334 15793408
3072.3333 -89.000008 -309.66666 15924736
3136.5 -92.374992 -331.5 16776192
3182.0557 -97.055557 -330.88889 16645120
2797.0493 -23.424999 -307.60001 262012
2809.4224 -26.044439 -318.04443 65397
2893 -30 -336 65331
2922.3684 -26.263157 -343.26318 4718349
2953.2502 -21.75 -348.24997 8453888
2795.6106 25.259264 -310.00003 655210
2806.833 19.375 -320.04166 65382
2872.8335 37.333332 -337.99997 65397
2924.9329 18.866667 -344.33331 5504774
2793.5681 73.567902 -312.96295 851820
2825.25 78.149994 -331.70001 65412
2869.9287 70.285713 -341.85712 65401
2906 76 -349 65424
2790.7974 123.49277 -312.11594 1769049
2820.1331 124.73333 -329.59998 65369
2869.2002 116.89999 -340.79999 262000
2913.1667 134.83334 -345.66666 5502527
2788.0007 173.96877 -312.48434 1507169
2814 173.11111 -327.88889 65377
2890.1111 172.8889 -340.99997 2293514
2923.125 176.25002 -346.87497 3538694
2785.0464 225.41537 -313.18466 1506901
2823.3335 234.33334 -331.66669 65379
2886.5 230.8 -341.49997 2096909
2907.7146 215 -344.85715 2031383
2783.1863 273.77963 -314.25421 1637968
2812.3 276.19998 -331 196412
2891.5 277.75 -343.75 5177099
2912.5002 275.16666 -347.83331 5242624
2779.1501 323.6001 -313.58328 2686537
2814.0002 327.125 -332.75003 130884
2886.6665 330 -343.33334 1965833
2911.6001 329.60001 -349.39999 8781568
2778.0386 373.23065 -314.51923 458342
2815.1428 374.57138 -333.28564 65314
2886.9998 370 -345 65329
2907.0002 380.66666 -349.33331 13696768
2779.0476 408.28574 -314.7619 65386
2817.9998 420.75 -316.5 65340
2888.875 424.00003 -340.875 2555659
2914.9998 442.42856 -326.28568 8519424
2958 449 -345 7864064
2967.8 455.59998 -327.19998 14351616
3032 466.25 -312.25 13827584
3135.1494 492.04999 -325.94998 15465728
2698 543 -333 35071
2719.5793 536.1579 -332.60526 38911
2760.25 534.62506 -320.875 40959
2841 537 -326.5 41471
2860 538 -307 32767
2919.3999 539.20001 -308 27903
2975.0005 535.9696 -333.15149 42999
3023.5715 542.42853 -322.42856 60120
3075.1248 537.25006 -336.25 327506
3132.9241 524.59491 -324.45569 14744832
2697.5 553.5 -333.5 46847
2712.8418 559.36835 -334.52634 39167
2771.7498 572.75006 -317.66669 34297
2820.2222 574.88885 -328.55551 42236
2862 592.375 -324.87503 32511
2933.5713 563.57147 -332.57144 982865
2969.3 558.79999 -313.10001 53448
3029.667 566.66669 -329 5626214
3079.0002 573.33331 -335.33334 3407662
3122.5999 553.79999 -308.80002 12844288
2587.1108 644.03699 -326.99994 57037
2628.3003 641.79999 -324.39999 20223
2672.9998 646.75 -318.49997 9727
2739.0737 635.51855 -313.55557 22015
2769.5881 620.35297 -321.17648 22271
2822.9998 620.95831 -336.16666 26879
2883.4116 613.70587 -327.17645 31999
2916.5457 616.27277 -332.36365 30975
2983 628 -301 62185
3054 635 -303 65462
2567.7339 674.78479 -326.39236 65370
2682.25 652.75 -330.75 16895
2729.5557 653.22223 -324.66666 12031
2772 655 -346 6655
2803 650 -344 24063
2561.1292 724.82855 -321.82864 65372
2549 791 -338.5 65401
2555.2505 772.37506 -327.34366 65361
2547.4167 827.70831 -324.20831 65356
2552.6255 821.02502 -329.22501 65369
2545.1699 875.84906 -323.28308 65388
2550.7271 863.81818 -324.18182 65363
2539.9824 923.45624 -322.80698 65378
2534.9302 974.92993 -322.82452 65382
2531.45 1022.0667 -327.24994 64599
2530.2822 1069.239 -332.45648 64152
2566.5002 1104.5 -328.5 65518
2714 1173.5 -313.5 65367
2788 1206 -314 65288
2804 1220 -341 5046016
2878.5 1254 -339.5 10747648
2992 1307 -342 11992832
3006 1313 -326 11992832
3070.6001 1338.8 -319 4062976
3075.3423 1374.4213 -318.76315 7077632
3069.3806 1423.9999 -319.14288 8519424
2826.1252 1496.125 -324.625 313279
2874.429 1497.4287 -329.42859 35583
2904 1498 -332 35071
3065.3008 1471.5001 -321.44995 7995136
2826.6523 1526.2609 -325.56519 322974
2878.7998 1503.2 -330.79999 37119
2929.9089 1503.7273 -322.72729 35583
2978.1665 1507.3333 -320.66666 35327
3028.9165 1511.1667 -320.75 38911
3063.8462 1509.077 -319.61539 8126208
2824.7332 1575.1334 -321.16666 65443
2823.5789 1624.4999 -325.07895 64951
2824.6072 1671.2144 -329.75 65232
2819.6895 1726.4484 -319.5517 63688
2816.6045 1772.9166 -327.49997 61907
2823.4712 1812.1176 -332.76468 61912
2920.3333 1888 -332.33334 57296
2992 1940.5 -331.5 57855
2887.8 1994.7999 -349.60001 44799
2906.0002 1997.6667 -348.00003 45823
3017.1492 1982.1246 -323.35004 63992
2894.9268 2008.8784 -326.24387 46591
2920.1812 2011.1454 -327.38184 48127
2977.4363 2017.3585 -322.0256 49407
3011.3411 2017.3867 -324.97723 61164
3387.5 -2358.5 -292 255
3427.1428 -2379.7146 -298.14288 255
3452 -2379 -296 255
3345 -2328 -285 255
3379.9998 -2331.4285 -290.14282 255
3405 -2330 -291 255
3248 -2267 -275 255
3289.5 -2281.4998 -278 255
3326.0002 -2270.6667 -282.33334 255
3358.5 -2255 -283.5 42969
3184 -2206.3335 -267 255
3225 -2222 -271.5 255
3272.3335 -2216.6665 -270.66669 255
3317.4998 -2235.6665 -268.83331 4863
3358.2124 -2225.6362 -271.87875 64100
3097 -2163 -258 255
3122.6665 -2169.3335 -260.33334 255
3181.3333 -2172.3333 -258.99997 255
3222.4998 -2179 -260.5 255
3254 -2194 -263 255
3349 -2154 -285 65335
3353.8379 -2175.2163 -280.4054 65348
3080.1667 -2138.1667 -254.00002 255
3126 -2133 -258 255
3348.5999 -2123.9998 -276.80002 65334
3351.9658 -2127.2 -274.96664 65321
3346.625 -2071.6875 -276.56247 65314
3351.75 -2090.25 -272.25 65322
3342.5835 -2022.7499 -269.5 65305
3338.583 -1975.2917 -281.83337 851713
3331.8464 -1927.808 -279.23077 2490125
3295 -1882 -255 65433
3325.8459 -1877.077 -278.76923 2948895
3272.5 -1816 -252 65399
3322.1816 -1823.9999 -285.09091 4980498
3287.0002 -1774.2856 -257.57144 65447
3321.7275 -1774.4545 -288.36365 7339779
3287 -1734.3334 -262 65450
3312.4004 -1727.8 -283.00003 5242638
3237 -1693 -252 35071
3288.375 -1675.875 -265.25 1697384
3305.3003 -1674.3002 -287.70001 8191744
3291 -1617.9999 -271.14288 3866423
3302.8464 -1629.2306 -285.61539 9371392
3231 -1580 -252 65509
3284.7896 -1571.6315 -268.78949 4188746
3302 -1588.9999 -278 8650496
3243 -1534.5 -252 65471
3282 -1527.9376 -267.25 3931986
3300 -1545 -277 8978176
3285.4739 -1474.5261 -273.47366 6356742
3286.6089 -1426.0869 -281.30432 8847104
3215.9998 -1368.3334 -255.16669 11861760
3282 -1375.2501 -278.99997 9502464
3223.5715 -1330.7142 -254.28572 11140608
3278.3684 -1324.9474 -276.89474 9961216
3235 -1291 -252 10616576
3274.5601 -1273.52 -278.48001 9961216
3270.9233 -1226.0385 -278.34613 10682112
3267.5474 -1175.5485 -274.129 11599616
3265.0535 -1126.7295 -277.70273 12451328
3261.8386 -1074.7419 -273.03229 12713728
3254.7739 -1024.3226 -280.87097 11861504
3249 -989 -298 11992832
3252.9519 -974.85724 -278.28574 12189184
3248.031 -924.60602 -275.09091 12647936
3251.2666 -929.13336 -274.13333 13827584
3245.0007 -871.13513 -277.78375 13565440
3250.375 -886.625 -276.12497 15072768
3240.1333 -824.95563 -273.04443 14417152
3233.9617 -775.65381 -274.53848 15400192
3230.1157 -723.71161 -279.26926 15400192
3227.3811 -690.09515 -277.4762 5625425
2975.5 -618.5 -279.5 255
2791.3752 -564.375 -259.125 255
2814.7275 -570.63635 -266.09091 255
2867 -590.5 -274.5 255
2935 -579 -298 255
2748 -520 -268.33334 767
2772.6365 -516.72736 -273.72729 1023
2800.3333 -522.66669 -281.66666 255
2741.6875 -470.93747 -266.125 1791
2768.2585 -477.62073 -271.362 1535
2741 -438.44446 -274.66666 511
2773.5156 -422.4516 -268.38708 767
2813.2002 -416.26666 -277.20001 511
2871.5 -413.5 -293 255
2914 -421 -297 255
2952 -441 -300 255
3063.5 -401.5 -271.5 2303
3144.5 -412.50003 -281.00003 5631
3189.1001 -412 -275.70001 7423
3210 -406.7778 -278.55554 8703
2744.5002 -370 -271.5 2303
2782.6248 -384.04999 -265.97501 7679
2816 -384.20001 -278.00003 1023
2879.0002 -379.5 -276.5 2303
2933 -386 -263.5 2303
3196.2942 -369.41174 -272.11765 7423
3206.4736 -376.53848 -275.33334 8703
3197.366 -320 -274.16669 9356373
3203.8513 -327.82431 -275.52698 5220501
3194.1782 -271.98624 -276.99994 16317440
3201.7371 -281.13162 -275.07901 16776192
3190.5376 -225.23447 -274.54681 16448512
3200.2 -235.40001 -281.19998 16776192
3187.8669 -175.36295 -274.70367 16448512
3183.897 -124.21913 -275.35608 16645120
2795.2197 -59.390236 -276.82925 327544
2801.8623 -63.999989 -275.79312 65421
2923.3 -76.950005 -274.59998 1965848
2981.8889 -82.444443 -283.2222 11337216
3021.7144 -85.714287 -273.14285 12975616
3077 -88.333328 -278 16776192
3124.0002 -91.500008 -269.16669 16776192
3176.1423 -96.761902 -275.7619 16710656
2787.9937 -25.078217 -275.00558 6356261
2788.2122 24.108696 -274.83688 1217971
2803 17.5 -290 41439
2784.1365 75.05146 -275.06287 3455876
2781.3481 124.34303 -274.8779 4378735
2780.4106 174.28204 -275.11539 1022658
2775.6453 223.33339 -275.79434 5362274
2773.613 274.05621 -275.66891 4046723
2771.946 324.19077 -276.14539 1284794
2773.2336 374.28979 -275.73828 1834080
2773.75 408.87506 -275.70004 65400
2817 425 -267.49997 65352
2889.3335 438.49997 -274.66669 2227975
2916.5 441.5 -284.5 3538688
2950 449 -269 7536384
2923 450 -283 13696768
2969.2856 456.00003 -269.71429 12909824
3034.0002 470 -275.33334 15662336
3070.5 473.99997 -273.75 14745088
3132.9045 492.66666 -274.90475 14679296
2745.7141 541.57141 -289.71426 44799
2769.1819 536.18182 -286.81815 53758
2833 548 -293 65424
2885 542.5 -285 45311
2915.6001 541.80005 -286.19998 43518
2973.8 547.40002 -292.39999 61423
3134.531 524.55554 -276.45682 15138048
2739.25 552.62494 -291.125 41727
2781.0005 579.46155 -281 34302
2833.2498 573.5 -275.74997 54491
2879.6956 564 -267.30435 51952
2925.6667 575 -276.33334 65475
2977.8335 572.25 -278.41666 63118
3030.8333 570.66663 -275.66669 62043
3079.3638 570.27271 -282.09091 3079682
3129.0767 566.30768 -272.4231 14744832
2585.9543 643.591 -274.72729 56531
2617.5 639.75 -276 17151
2673.2002 645 -281.59998 8191
2729.7778 627.80554 -288.49997 21503
2778.75 615.34991 -275.14999 24319
2826.0952 622.04767 -283.52386 29951
2871.2856 628.78571 -267.07144 37116
2925 617.28571 -279.85712 54989
2968.5 625.5 -273.12503 62402
3028.3997 624.66675 -281.20001 61861
3075.5925 635.03693 -269.55554 2293283
3119.6667 629 -260.91669 12909824
2567.6665 672.07159 -274.77383 65389
2672.5002 652.50006 -260.5 14335
2727.7998 658.39996 -264.20001 8703
2773.4165 661.41663 -273.16669 6655
2821.7502 661.62494 -261.9375 13823
2872.1428 661.85712 -262.28571 23807
2922.5002 667.00006 -270.5 21759
2991.5 658 -253.49998 65447
3027 655.25 -254.75002 65380
3072.3333 652 -255.33333 1965835
2559.4199 724.50726 -274.11594 65382
2554.5286 774.71429 -277.21423 65385
2547.1279 826.46167 -277.23077 65388
2551.3999 819.64001 -281 65386
2545.812 876.50006 -275.85419 65383
2552 859.66663 -262 65376
2540.3396 923.78564 -276.82141 65378
2534.4492 975.36749 -276.10205 65384
2530.6035 1025.3019 -271.849 65363
2529.1736 1070.9783 -276.76086 64897
2548 1102 -300 56831
2723 1181 -291 65343
2758.5 1192.5001 -287.5 65360
2786.6667 1210 -262.99997 2227980
2839 1231 -268.5 3473152
2891 1261 -276 10616576
3072.3333 1345.8333 -279.33331 9633536
3074.3 1372.5502 -281.15005 9633536
3069.2224 1424.1666 -279.16663 9043712
2825.0713 1495.8571 -280.14285 447155
2870.571 1497.2858 -280.14288 35839
2907 1499 -298 35071
3064.8 1475.2002 -274.33334 8912640
2826.7004 1523.1249 -276.47501 914990
2874.2222 1502.7778 -271.44443 37119
2923 1503.5293 -276.94119 35327
2975.8184 1508.0001 -279.09091 35327
3020.5002 1511.375 -278.5 37119
3061.3335 1511.2223 -277.11111 8716071
2826.3413 1572.5001 -277.70453 65375
2822.7932 1626.2059 -269.88239 65386
2819.1433 1676.7142 -270.66669 65407
2818.8252 1722.7255 -277.35001 65427
2814.3477 1772.087 -278.91299 65400
2832 1807 -265 65343
2871.3333 1838.3335 -274.33331 655119
2897 1860 -259 1441536
2931.3335 1882 -274.66663 65346
2983 1917.5 -285.5 65466
3011.5 1942.5 -278.5 65519
2876.9993 1996.866 -266.34616 46847
2917.2856 1998.8572 -267.28574 46591
3014.2432 1973.3513 -277.97296 65014
2885.0999 2005.0502 -287.49997 47359
2923.2288 2004.714 -277.94287 47615
2979.0459 2011.6818 -282.04544 50431
3009.4783 2010.1304 -276.08694 62708
3232.2729 -2263.3638 -213.81818 255
3280.1997 -2261.0002 -207.20001 1791
3330.4287 -2267.4287 -214.71431 4607
3360.9446 -2274.4443 -211.1111 54221
3180.5 -2223.3748 -213.5 255
3215.8884 -2236.1111 -210.66667 255
3283.25 -2224.2502 -230.75 1279
3332.5 -2244.75 -232.25 12543
3359.7571 -2227.9458 -227.70271 63838
3087.5 -2159 -220.5 255
3127.9089 -2170.1816 -217 255
3171.3079 -2175.6152 -210.23077 255
3229.5 -2172.9998 -246.5 255
3264 -2198 -236 255
3354.1431 -2177.3809 -223.33331 65352
3040.3125 -2119.0315 -235.4687 255
3067.5811 -2120.8604 -234.2558 255
3121.9001 -2126.7 -224.49998 255
3163.25 -2141.25 -227 255
3347.8569 -2129.5715 -237.28572 65341
3351.125 -2135.6252 -227.25002 65337
3287.0002 -2064.4998 -227.49998 9633536
3324.2666 -2075.8667 -234.80002 1437027
3227 -2020.5002 -222.5 6881024
3280.0002 -2029.5 -229.5 2925951
3321.7998 -2030.8 -242.00002 56177
3224.5 -1986.5 -226.5 65362
3279 -1979 -239 1965824
3189 -1917 -229 56831
3294 -1912 -235 17663
3305 -1909 -238 17663
3235 -1862 -242 65445
3273.25 -1868.75 -247.75 53877
3310.25 -1892.75 -243 20735
3227 -1829 -238.5 57825
3266.4001 -1816.3999 -238.8 55700
2961 -1772 -208 13311
3076 -1794 -217 13311
3193 -1770 -238 15359
3237.6667 -1776 -231.66667 44287
3270.4285 -1772.7142 -209.71428 17407
3273 -1722.5 -205 16383
3272.9998 -1668.7499 -216.75 16895
3302 -1673 -250 17663
2861 -1618 -209 6655
3167 -1626 -237 11007
3222 -1601 -246 24063
3282 -1646.5 -249.5 15359
3088 -1555 -236 8959
3239.3335 -1588 -249 62431
2964 -1531 -221 4607
3231 -1513 -242.5 15359
3265.75 -1510.5 -245 15359
2802 -1456 -208 2303
3126 -1460 -231 11007
3226.3335 -1472.8333 -243.33334 52977
3261.3333 -1485.3334 -240.33331 14591
2727 -1427 -202 2303
3160 -1437 -235 11007
3229.8887 -1421.8888 -236.33334 50898
3262.8752 -1425 -241.74998 2752386
2840 -1371 -215 4607
2984 -1370 -222 6655
3121 -1359 -211 65373
3183 -1372.5 -238 7274240
3220 -1388.5 -236.5 4194052
2830 -1331 -208.5 5631
3041 -1328 -202 65450
3087.9998 -1332.5 -201 65450
3118.6001 -1331.1998 -228.39999 2293582
3171 -1310 -250 7536384
2882 -1279 -206 6655
2983 -1260.5 -224.5 65445
3047 -1272 -229 65305
3068.3999 -1258.7999 -232.00003 65317
3118.6001 -1269.4 -238.8 2490112
3167.8 -1266.2 -236.59999 4521728
3229.25 -1273.5 -235.50002 5308160
3272.0693 -1268.8622 -232.55176 9895680
2885.5 -1217 -207.50002 45823
2922.3999 -1227.4 -215 56779
2956.5 -1215.5 -219 65403
3021.3335 -1213.3333 -223.99998 65439
3116.9998 -1242.0001 -228.33334 65383
3271.7324 -1225.4391 -225.19511 10682112
2885.8572 -1177.8573 -208.57144 63188
2920.6667 -1176.6667 -212.66667 50131
2993 -1198 -222 65479
3267.7639 -1176.7649 -228.67647 11599616
3265.3818 -1124.7939 -232.26471 12648192
3261.8621 -1076.3888 -230.24995 13631232
3254.7551 -1025.8368 -227.85719 12975616
3248.1252 -957.875 -218.125 11861760
3253.6743 -980.62524 -224.80002 12647936
3247.6077 -922.07135 -220.03575 13303296
3250.55 -925.15002 -221.24998 13172224
3244.8892 -875.46674 -225.57776 13696512
3250.6665 -894.66669 -214.66667 13041408
3239.7083 -826.72913 -225.3958 14482944
3233.167 -774.77081 -225.33333 14614016
3229.6423 -726.08942 -230.37502 15662336
3167.6667 -674.66669 -229.66667 42234
3226.3572 -694.28577 -228.21429 2419802
2855 -607 -203 22015
2922 -616 -245 2303
3057 -643 -249 255
2784.5652 -566.34778 -222.65218 511
2820.864 -577.90912 -220.59093 767
2747 -530.00006 -221.74998 767
2774.8154 -516.09259 -225.92595 511
2817.9998 -523.49994 -242.5 255
2738.6206 -475.03445 -221.79312 1791
2769.3159 -473.89462 -227.78949 767
2802 -480 -245 255
2738.9998 -433.60001 -242.19998 1023
2780.2195 -417.95126 -228.87807 511
2811.9563 -412.43475 -221.95651 255
3085.5 -404.5 -228.50002 4607
3146 -407 -250 6655
3183.8662 -411.46664 -225.39999 7679
3212.5601 -407.04004 -226.55998 8959
2747.25 -382.5 -215.75002 1279
2780.9177 -381.47537 -226.32785 3583
2804.4167 -390.49997 -224.83336 511
2871 -377 -206 2303
2914 -382 -218 2303
2968.9998 -390.66669 -221 2303
3020 -396 -235 4607
3210.4482 -375.16193 -225.88571 19199
3196.1938 -317.33331 -225.97223 9949000
3204.0481 -327.32532 -224.31328 6070157
3191.9302 -272.08136 -224.69769 16514048
3201.842 -281.68423 -228.76315 16710656
3190.3535 -224.65305 -225.2789 16514048
3187.7295 -175.22701 -224.55833 16448512
3182.6125 -125.28576 -225.28571 16645120
2790.8333 -59.294865 -223.92307 524141
2805.2859 -67.380943 -231.95239 65416
2894.4998 -73 -213.5 65318
2923.2632 -77.315788 -223.36839 2424584
2968.9998 -81.416672 -227.99998 9960960
3028.8887 -85.666664 -226.33334 15793408
3063.7498 -88.25 -220.75 16382976
3134.6667 -92.833336 -226.16667 16645120
3174.7039 -96.666656 -224.11111 16710656
2783.3767 -24.769911 -224.63718 2792358
2781.1018 23.585766 -224.68207 3000719
2779.4575 74.643188 -225.22026 2466467
2777.1301 123.62505 -225.42006 2267308
2774.0386 174.57693 -224.56583 2999439
2772.416 224.17468 -226.04221 1939374
2769.2776 273.95743 -225.37589 2599067
2766.478 323.48535 -225.49268 3652478
2767.7866 374.04581 -225.2748 2555482
2771.8694 410.30432 -226.06522 65397
2811.9998 422.5 -214 65386
2887 438 -223.83333 1900311
2907 447 -234.5 10223360
2944.3333 453.66669 -216.66666 13499904
2974.4285 458.85712 -224.71429 14417152
3024 465 -226 11468544
3076.6665 477.66666 -217 13827584
3136.6318 494.21048 -225.05264 15465728
3133.5999 523.6875 -226.73747 15334656
2777.5002 578.50006 -201 31743
2809 598 -207 41471
2938.5 590.5 -207.50002 65430
2970 587.5 -210.00002 65409
3027.375 582.74994 -230.37498 55216
3079.6667 586.5 -234.83331 589629
3126.5088 571.37701 -223.13112 14679040
2586.0002 643.92303 -226.84616 55509
2614.5999 640 -224.90001 19199
2661.5 646.75006 -210.25 8703
2722.5649 636.08698 -211.39133 27647
2777.8887 635.77777 -224.55556 28671
2826.0002 636 -232.08333 37366
2878.3333 638.33337 -235.55554 45549
2928.2 632 -225 523658
2972.7998 630.40002 -224.39999 3604235
3021.3335 624.66663 -228 1572632
3084.8572 628.71423 -237.85713 12385792
3118.7407 621.18524 -239.22224 15268864
2566.5452 675.09082 -225.01295 65385
2683 650 -206.5 7679
2718.833 654.16663 -222.75 10495
2776 656.00006 -233.66666 10239
2819 654 -250 26367
2851 653 -250 32767
2970.5 653 -226 65388
3025.5713 657.71423 -242.85715 65302
3072.2502 653.74994 -246.75 7143168
2558.75 722.42102 -223.42107 65387
2547.8464 781.30756 -220.3846 65374
2554.3538 772.90747 -224.96927 65390
2547.0596 828 -228.50002 65387
2551.1499 809.3999 -226.74998 65394
2544.3496 874.61682 -228.75 65383
2550 871.5 -239 65381
2540.5005 924.15619 -228.39061 65386
2534.7588 973.43109 -231.68965 65396
2530.6592 1024.7234 -228.06383 65386
2530.0227 1071.4546 -224.36366 63889
2545 1102 -240 63231
2620 1130 -205 65496
2738 1183 -223 65382
2777.5002 1207.5 -234.49998 1965830
2842 1232 -213 1703680
2853 1237 -226 2817792
2995 1305.5 -228 10485504
3030.5 1319 -229.99998 7929600
3075 1345.8 -228 5963520
3074.0825 1375.0278 -232.22221 7405312
3070.5349 1425 -229.7907 7339776
2825.0771 1495.7693 -221.15384 508087
2875.1997 1498.4 -215.40001 34815
3065.1028 1475.041 -227.51019 7405312
2821.4617 1524.8077 -221.42307 521842
2878 1502.9999 -230.55556 36863
2923.5293 1503.647 -223.82353 36351
2975.6667 1508.1667 -229.44444 35839
3023 1512.0001 -225.05884 37119
3062.3333 1511.1667 -229.94444 6683942
2821.4514 1574.613 -220.06451 64364
2821.1174 1624.4117 -230.97058 65376
3005 1621 -201 39423
2818.1511 1674.7271 -233.54547 65406
2980.3333 1678.9999 -201.00002 38655
2814.4326 1727.8651 -226.5135 64917
2797.25 1775 -205.25002 65518
2812.4905 1774.5487 -228.43137 64894
2794 1833 -201 45823
2820.125 1821.9999 -211.12502 62386
2867.4998 1838 -235 2227968
2792.3333 1880.9999 -202 50943
2826 1865.5 -206.99998 62677
2881.833 1872.8334 -216.66669 65378
2921.25 1886.75 -227.49998 65372
2951 1897 -230 65433
2787.3748 1934.2501 -204.125 51455
2823.7776 1928.5557 -210.66667 64250
2877.3335 1929 -216 65473
2917.2502 1910.25 -222 65411
2973.1667 1935.5 -233.16666 65468
3007 1944 -242.5 65524
2793 1952.25 -209.25 50175
2825.0769 1969.4615 -217.46156 50687
2869.6035 1990.9795 -234.35416 49662
2916.2502 1987.375 -230 55028
2973 1995.5001 -233 64244
3008.0769 1981.3077 -243.46153 65012
2882.6665 2000.2222 -244.44443 47615
2917.083 2002.667 -241.08334 48383
2968.75 2003.5 -243.5 50426
3008.5 2000.9999 -245.99998 65515
3354 -2302 -198.5 26367
3267.5 -2255 -191.50002 32750
3326.5002 -2271.4998 -180 63134
3359.2727 -2274.8181 -188.68179 65419
3146 -2205 -196 255
3165.9998 -2213 -199 255
3221 -2225.3335 -185.66667 29929
3282.25 -2227.75 -167 65415
3327.8572 -2222.2856 -170.57143 65410
3356.6431 -2227.1428 -187.21429 65371
3090.0002 -2163.6665 -187.33334 255
3124.4285 -2179.2856 -188.57144 9727
3160.7502 -2182.25 -178 37104
3234.75 -2182.0002 -157.5 65429
3282 -2173.5 -157.75002 65462
3328.9998 -2178 -159.66667 65455
3354.2402 -2171.1196 -180.84001 65340
3037.8 -2123.3496 -158.60001 56318
3064.2 -2135.7251 -170.35002 38143
3178 -2131.5 -152 65492
3262 -2135 -151 65505
3333.3999 -2122.3999 -165.39999 2424593
3351.8569 -2140.2859 -168.71426 65331
3241.5 -2054 -154 13827840
3279 -2079 -162 15335168
3192 -2014 -189 65535
3230 -2043 -181 9502464
3286.5 -2015.0001 -178.99998 27391
3308.6665 -2025.6665 -173 41983
3198 -1958 -158 56831
3204.8 -1961.0001 -156.20001 63226
3285.4287 -1978.8573 -188 27903
3311.0908 -1973.5454 -182.72728 43775
3137 -1944 -151 17663
3189.3335 -1929.111 -166.77777 49919
3207.4001 -1918.9001 -161.70001 58110
3285.5715 -1920.5714 -193.85715 22783
3307 -1935.7999 -187.80002 34815
3199 -1882 -169 50175
3206.45 -1872.75 -166.60002 53247
3281.4998 -1882.7499 -194.875 20479
3304.9998 -1891 -188 26111
2974 -1832 -162 13311
3214.3333 -1824.1664 -171.24998 47103
3271.25 -1829.5001 -195.25 19199
3068 -1753 -189 13311
3184.3335 -1763.6667 -167 45055
3205.6001 -1774.2001 -157 57087
3287.9998 -1769.3334 -199.33333 19711
2884 -1737 -169 11007
3188 -1724 -180 34815
3207.3335 -1722.2222 -177.55554 50943
3272 -1707 -199 17663
3007 -1692 -186 11007
3195 -1670.0001 -171.78572 56575
3201.5 -1685.5 -180.66664 53759
2801 -1642 -196 6655
2970 -1611 -191 11007
3040 -1614 -196 11007
3053 -1648 -193 13311
3190.7 -1629.8 -167.10001 54527
3217.3335 -1629.3334 -164 28415
3259.6667 -1642.3334 -177.66666 16127
2519.3335 -1559.3334 -167.66666 5887
2565 -1558.0001 -164 5631
2639.9998 -1572 -171 5631
2678 -1582.5 -163 6655
3163 -1600 -155 45823
2437.5 -1506 -156.5 4607
2457 -1527 -158 4607
2541 -1514 -162.99998 4607
2574.5 -1528.5 -167 4607
2721.6665 -1534.3333 -179.33333 5887
2815 -1535 -181 6655
2437.4614 -1481.1539 -157.30769 4351
2475.6001 -1475.5001 -159.39999 3583
2577.0002 -1463 -173.5 4607
2654 -1468 -171 4607
2776 -1489 -177 6655
2448 -1425 -156 2303
2468.7776 -1424.0001 -161.44446 2303
2521 -1410.7999 -168.60001 2559
2570.0002 -1424 -175.00002 3327
2664 -1402 -196 2303
3231 -1417.2499 -170.75 2347590
3278.7695 -1421.5385 -174.3846 7601920
2479.6401 -1374.4399 -168.76001 2303
2522.5715 -1371.1429 -171.14285 2303
2576 -1375.75 -177 2815
2614.3335 -1376 -192.33334 2303
3076 -1351 -188 65407
3132 -1367 -198 65382
3177.5 -1377.8333 -183.83331 1179459
3233.8003 -1390.4 -182.79999 2883371
2477.4446 -1326.3334 -167.72223 2303
2505 -1328.5 -173.00002 2303
2629 -1319.7501 -158.75 4607
2695 -1328 -153 6655
2738.125 -1320.625 -159.24998 21247
2753.5 -1321.0001 -167.49998 18687
3096 -1327 -159 65441
3126 -1346 -200 65416
3150 -1346 -199 65454
2474.7727 -1275.6366 -171.22728 2303
2509.5 -1296 -176.5 2303
2579 -1276.5 -180 3327
2622.5 -1267.5 -192.5 3327
2694 -1278 -163.5 9983
2717.7998 -1280.4 -177.40001 7935
2757.75 -1282.5 -158 23551
2816 -1277 -163 8959
3020 -1287 -194 63231
3188 -1261 -195 61183
3221 -1266 -183 851833
3270.7996 -1267.2401 -175.43999 9109248
2473.4497 -1229.1499 -172.55 2303
2520.5715 -1234.8572 -183.14287 2303
2563.3333 -1233.3334 -188.00002 2303
2638 -1235.25 -179 5631
2678 -1222.3999 -166 7167
2796 -1234 -154 8959
2868.1877 -1210.8124 -171.37498 22015
2925 -1249 -157 41471
3145 -1239 -167.5 65483
3188 -1246 -157 65335
3271.8435 -1226.0936 -170.46872 10813184
2471.3333 -1175 -172.20001 2303
2517 -1177.5 -177.50002 2815
2574.5 -1171.5 -185.5 2303
2613.5 -1178.4999 -189.00002 2303
2873.5552 -1174.6888 -166.2 29439
2903 -1156 -180 11007
2979 -1179.6666 -163 38399
3013 -1189 -152 61183
3267.166 -1173.4722 -181.27777 11271936
2468.5 -1125.5 -168.49998 2303
2513 -1127 -181 2303
2894 -1149.5 -157.5 26111
3266.2922 -1126.1952 -180.07318 12582656
2445.5 -1091.5 -166.5 2303
2467.1428 -1091.8572 -164.71429 2303
3260.7498 -1075.7499 -175.88637 13762048
3253.9998 -1024.8262 -169.78259 13434368
3248.3333 -959.5 -172.33334 11599616
3252.9441 -976.75012 -173.77776 13958656
3247.25 -922.70007 -173.85001 12713472
3250.8181 -928.77289 -170.95456 12975616
3243.9812 -875.00018 -172.61996 14089728
3237.6335 -825.93335 -174.88332 13565440
