0.0000 0.0000 0.0000 0.0000
0.0000 0.0000 0.0000 0.0000
0.0000 0.0000 0.0000 0.0000
0.0000 0.0000 0.0000 0.0000
0.0000 0.0000 0.0000 0.0000
0.0000 0.0000 0.0000 0.0000
0.0000 0.0000 0.0000 0.0000
0.0000 0.0000 0.0000 0.0000
0.0000 0.0000 0.0000 0.0000
0.0000 0.0000 0.0000 0.0000
0.0000 0.0000 0.0000 0.0000
0.0000 0.0000 0.0000 0.0000
0.0000 0.0000 0.0000 0.0000
0.0000 0.0000 0.0000 0.0000
0.0000 0.0000 0.0000 0.0000
0.0000 0.0000 0.0000 0.0000
0.0000 0.0000 0.0000 0.0000
0.0000 0.0000 0.0000 0.0000
0.0000 0.0000 0.0000 0.0000
0.0000 0.0000 0.0000 0.0000
0.0000 0.0000 0.0000 0.0000
0.0000 0.0000 0.0000 0.0000
0.0000 0.0000 0.0000 0.0000
0.0000 0.0000 0.0000 0.0000
0.0000 0.0000 0.0000 0.0000
0.0000 0.0000 0.0000 0.0000
0.0000 0.0000 0.0000 0.0000
0.0000 0.0000 0.0000 0.0000
0.0000 0.0000 0.0000 0.0000
0.0000 0.0000 0.0000 0.0000
0.0000 0.0000 0.0000 0.0000
0.0000 0.0000 0.0000 0.0000
0.0000 0.0000 0.0000 0.0000
0.0000 0.0000 0.0000 0.0000
0.0000 0.0000 0.0000 0.0000
0.0000 0.0000 0.0000 0.0000
0.0000 0.0000 0.0000 0.0000
0.0000 0.0000 0.0000 0.0000
0.0000 0.0000 0.0000 0.0000
0.0000 0.0000 0.0000 0.0000
0.0000 0.0000 0.0000 0.0000
0.0000 0.0000 0.0000 0.0000
0.0000 0.0000 0.0000 0.0000
0.0000 0.0000 0.0000 0.0000
0.0000 0.0000 0.0000 0.0000
0.0000 0.0000 0.0000 0.0000
0.0000 0.0000 0.0000 0.0000
0.0000 0.0000 0.0000 0.0000
0.0000 0.0000 0.0000 0.0000
0.0000 0.0000 0.0000 0.0000
0.0000 0.0000 0.0000 0.0000
0.0000 0.0000 0.0000 0.0000
23234.0000 3257.0000 -6654.0000 4.0000
23230.0000 3229.0000 -6578.0000 31.0000
23223.0000 3201.0000 -6502.0000 33.0000
23216.0000 3173.0000 -6426.0000 30.0000
23206.0000 3144.0000 -6351.0000 30.0000
23210.0000 3117.0000 -6278.0000 30.0000
23211.0000 3089.0000 -6205.0000 29.0000
23180.0000 3057.0000 -6123.0000 29.0000
23205.0000 3033.0000 -6056.0000 29.0000
23190.0000 3002.0000 -5981.0000 31.0000
23177.0000 2972.0000 -5904.0000 29.0000
23162.0000 2942.0000 -5827.0000 30.0000
23159.0000 2913.0000 -5754.0000 30.0000
23157.0000 2883.0000 -5682.0000 30.0000
23163.0000 2855.0000 -5611.0000 30.0000
23154.0000 2825.0000 -5536.0000 29.0000
23145.0000 2794.0000 -5462.0000 32.0000
23139.0000 2764.0000 -5389.0000 31.0000
23139.0000 2735.0000 -5318.0000 30.0000
23128.0000 2703.0000 -5244.0000 30.0000
23121.0000 2673.0000 -5170.0000 31.0000
23111.0000 2641.0000 -5097.0000 30.0000
23110.0000 2611.0000 -5026.0000 32.0000
23103.0000 2580.0000 -4953.0000 32.0000
23099.0000 2549.0000 -4881.0000 31.0000
23118.0000 2520.0000 -4814.0000 33.0000
23096.0000 2488.0000 -4741.0000 31.0000
23086.0000 2456.0000 -4668.0000 31.0000
23076.0000 2424.0000 -4595.0000 31.0000
23073.0000 2393.0000 -4524.0000 32.0000
23074.0000 2361.0000 -4454.0000 32.0000
23069.0000 2330.0000 -4384.0000 33.0000
23064.0000 2297.0000 -4313.0000 32.0000
23060.0000 2265.0000 -4243.0000 30.0000
23046.0000 2232.0000 -4170.0000 32.0000
23041.0000 2200.0000 -4101.0000 32.0000
23037.0000 2167.0000 -4031.0000 33.0000
23028.0000 2134.0000 -3960.0000 34.0000
23019.0000 2101.0000 -3889.0000 34.0000
23022.0000 2069.0000 -3820.0000 34.0000
23010.0000 2036.0000 -3751.0000 33.0000
23023.0000 2004.0000 -3684.0000 33.0000
23182.0000 1985.0000 -3640.0000 17.0000
23806.0000 2004.0000 -3668.0000 25.0000
35128.0000 2907.0000 -5308.0000 39.0000
35084.0000 2853.0000 -5197.0000 49.0000
35077.0000 2802.0000 -5092.0000 45.0000
35078.0000 2752.0000 -4990.0000 39.0000
23225.0000 1788.0000 -3235.0000 8.0000
23070.0000 1742.0000 -3145.0000 13.0000
23074.0000 1709.0000 -3078.0000 16.0000
22905.0000 1662.0000 -2987.0000 17.0000
22733.0000 1617.0000 -2899.0000 20.0000
22790.0000 1587.0000 -2840.0000 23.0000
22862.0000 1558.0000 -2781.0000 27.0000
22914.0000 1527.0000 -2721.0000 13.0000
29260.0000 1907.0000 -3389.0000 19.0000
29228.0000 1861.0000 -3301.0000 18.0000
29214.0000 1816.0000 -3214.0000 25.0000
29202.0000 1771.0000 -3128.0000 21.0000
22889.0000 1354.0000 -2385.0000 4.0000
22877.0000 1318.0000 -2317.0000 12.0000
22881.0000 1284.0000 -2253.0000 12.0000
22853.0000 1247.0000 -2184.0000 10.0000
22858.0000 1212.0000 -2118.0000 11.0000
22841.0000 1176.0000 -2051.0000 11.0000
22831.0000 1141.0000 -1985.0000 11.0000
22841.0000 1106.0000 -1920.0000 11.0000
22828.0000 1070.0000 -1853.0000 11.0000
22819.0000 1034.0000 -1788.0000 11.0000
22822.0000 999.0000 -1723.0000 12.0000
22815.0000 963.0000 -1657.0000 12.0000
22791.0000 926.0000 -1590.0000 12.0000
22806.0000 891.0000 -1527.0000 12.0000
22794.0000 854.0000 -1461.0000 15.0000
22805.0000 819.0000 -1397.0000 72.0000
22824.0000 783.0000 -1333.0000 75.0000
22764.0000 745.0000 -1265.0000 16.0000
22757.0000 708.0000 -1201.0000 17.0000
22759.0000 672.0000 -1137.0000 17.0000
22738.0000 635.0000 -1071.0000 19.0000
22725.0000 598.0000 -1007.0000 26.0000
22803.0000 563.0000 -946.0000 21.0000
22862.0000 528.0000 -884.0000 23.0000
22937.0000 492.0000 -823.0000 6.0000
23180.0000 459.0000 -766.0000 15.0000
23402.0000 426.0000 -709.0000 16.0000
23467.0000 389.0000 -645.0000 11.0000
23390.0000 349.0000 -577.0000 13.0000
23456.0000 311.0000 -513.0000 13.0000
23360.0000 272.0000 -447.0000 4.0000
28934.0000 289.0000 -473.0000 33.0000
28935.0000 240.0000 -392.0000 33.0000
28955.0000 192.0000 -311.0000 32.0000
28904.0000 143.0000 -230.0000 31.0000
28888.0000 96.0000 -151.0000 30.0000
28870.0000 47.0000 -71.0000 32.0000
28870.0000 -1.0000 8.0000 32.0000
28861.0000 -49.0000 87.0000 26.0000
0.0000 0.0000 0.0000 0.0000
0.0000 0.0000 0.0000 0.0000
0.0000 0.0000 0.0000 0.0000
0.0000 0.0000 0.0000 0.0000
0.0000 0.0000 0.0000 0.0000
0.0000 0.0000 0.0000 0.0000
0.0000 0.0000 0.0000 0.0000
0.0000 0.0000 0.0000 0.0000
0.0000 0.0000 0.0000 0.0000
0.0000 0.0000 0.0000 0.0000
15902.0000 -327.0000 528.0000 1.0000
15867.0000 -354.0000 570.0000 3.0000
0.0000 0.0000 0.0000 0.0000
0.0000 0.0000 0.0000 0.0000
0.0000 0.0000 0.0000 0.0000
0.0000 0.0000 0.0000 0.0000
0.0000 0.0000 0.0000 0.0000
24840.0000 -817.0000 1298.0000 1.0000
24821.0000 -861.0000 1365.0000 31.0000
24822.0000 -906.0000 1432.0000 94.0000
24819.0000 -950.0000 1500.0000 110.0000
24806.0000 -995.0000 1566.0000 84.0000
24763.0000 -1037.0000 1630.0000 76.0000
24703.0000 -1079.0000 1693.0000 43.0000
24682.0000 -1123.0000 1758.0000 20.0000
24813.0000 -1175.0000 1835.0000 7.0000
24772.0000 -1217.0000 1898.0000 1.0000
24722.0000 -1260.0000 1960.0000 3.0000
24748.0000 -1307.0000 2029.0000 55.0000
24784.0000 -1355.0000 2099.0000 23.0000
0.0000 0.0000 0.0000 0.0000
0.0000 0.0000 0.0000 0.0000
0.0000 0.0000 0.0000 0.0000
0.0000 0.0000 0.0000 0.0000
0.0000 0.0000 0.0000 0.0000
0.0000 0.0000 0.0000 0.0000
0.0000 0.0000 0.0000 0.0000
0.0000 0.0000 0.0000 0.0000
0.0000 0.0000 0.0000 0.0000
0.0000 0.0000 0.0000 0.0000
0.0000 0.0000 0.0000 0.0000
0.0000 0.0000 0.0000 0.0000
0.0000 0.0000 0.0000 0.0000
0.0000 0.0000 0.0000 0.0000
0.0000 0.0000 0.0000 0.0000
54.0000 -4.0000 6.0000 0.0000
0.0000 0.0000 0.0000 0.0000
0.0000 0.0000 0.0000 0.0000
0.0000 0.0000 0.0000 0.0000
0.0000 0.0000 0.0000 0.0000
24720.0000 -2341.0000 3475.0000 3.0000
24639.0000 -2383.0000 3529.0000 29.0000
24634.0000 -2430.0000 3593.0000 30.0000
24524.0000 -2468.0000 3641.0000 11.0000
24450.0000 -2510.0000 3695.0000 7.0000
19563.0000 -2048.0000 3007.0000 4.0000
19353.0000 -2064.0000 3026.0000 13.0000
19249.0000 -2092.0000 3060.0000 20.0000
19347.0000 -2142.0000 3126.0000 8.0000
19313.0000 -2177.0000 3171.0000 4.0000
19007.0000 -2182.0000 3171.0000 3.0000
18961.0000 -2214.0000 3212.0000 5.0000
18902.0000 -2246.0000 3252.0000 8.0000
18809.0000 -2274.0000 3285.0000 6.0000
18715.0000 -2302.0000 3317.0000 5.0000
18651.0000 -2332.0000 3354.0000 3.0000
18622.0000 -2367.0000 3397.0000 3.0000
18590.0000 -2402.0000 3440.0000 3.0000
18487.0000 -2428.0000 3469.0000 4.0000
18555.0000 -2476.0000 3530.0000 4.0000
19134.0000 -2593.0000 3689.0000 9.0000
19595.0000 -2697.0000 3828.0000 9.0000
18974.0000 -2652.0000 3756.0000 11.0000
18257.0000 -2590.0000 3661.0000 10.0000
17780.0000 -2560.0000 3611.0000 9.0000
17323.0000 -2532.0000 3563.0000 10.0000
17087.0000 -2534.0000 3558.0000 8.0000
16608.0000 -2499.0000 3501.0000 9.0000
16202.0000 -2473.0000 3457.0000 10.0000
15640.0000 -2421.0000 3377.0000 11.0000
15292.0000 -2401.0000 3340.0000 11.0000
15079.0000 -2400.0000 3332.0000 11.0000
14620.0000 -2359.0000 3268.0000 12.0000
14478.0000 -2368.0000 3273.0000 9.0000
14136.0000 -2344.0000 3232.0000 7.0000
13797.0000 -2318.0000 3189.0000 8.0000
13491.0000 -2297.0000 3152.0000 10.0000
13140.0000 -2267.0000 3103.0000 11.0000
12883.0000 -2251.0000 3074.0000 12.0000
12677.0000 -2243.0000 3057.0000 11.0000
12462.0000 -2234.0000 3037.0000 12.0000
12198.0000 -2214.0000 3003.0000 12.0000
11989.0000 -2203.0000 2981.0000 10.0000
11855.0000 -2206.0000 2978.0000 13.0000
11572.0000 -2180.0000 2936.0000 11.0000
11392.0000 -2172.0000 2918.0000 10.0000
11225.0000 -2166.0000 2903.0000 11.0000
11058.0000 -2159.0000 2887.0000 11.0000
10832.0000 -2140.0000 2855.0000 14.0000
10669.0000 -2133.0000 2838.0000 15.0000
10521.0000 -2128.0000 2825.0000 15.0000
10408.0000 -2129.0000 2820.0000 16.0000
10231.0000 -2118.0000 2797.0000 17.0000
10068.0000 -2108.0000 2777.0000 17.0000
9935.0000 -2103.0000 2765.0000 17.0000
9779.0000 -2093.0000 2745.0000 18.0000
9659.0000 -2091.0000 2735.0000 19.0000
9488.0000 -2077.0000 2709.0000 18.0000
9354.0000 -2070.0000 2694.0000 16.0000
9232.0000 -2065.0000 2681.0000 16.0000
9117.0000 -2062.0000 2669.0000 17.0000
9015.0000 -2060.0000 2661.0000 17.0000
8933.0000 -2063.0000 2658.0000 17.0000
8823.0000 -2060.0000 2646.0000 16.0000
8694.0000 -2051.0000 2628.0000 15.0000
8583.0000 -2046.0000 2615.0000 14.0000
8454.0000 -2036.0000 2595.0000 16.0000
8356.0000 -2033.0000 2585.0000 15.0000
8280.0000 -2035.0000 2581.0000 17.0000
8180.0000 -2031.0000 2569.0000 16.0000
8076.0000 -2025.0000 2555.0000 16.0000
7976.0000 -2020.0000 2541.0000 17.0000
7907.0000 -2023.0000 2538.0000 16.0000
7819.0000 -2020.0000 2527.0000 16.0000
7754.0000 -2023.0000 2524.0000 16.0000
7647.0000 -2014.0000 2506.0000 16.0000
7587.0000 -2018.0000 2504.0000 17.0000
7524.0000 -2020.0000 2500.0000 18.0000
7459.0000 -2022.0000 2495.0000 17.0000
7375.0000 -2018.0000 2484.0000 22.0000
7309.0000 -2019.0000 2478.0000 15.0000
7241.0000 -2018.0000 2470.0000 13.0000
7164.0000 -2016.0000 2460.0000 16.0000
7115.0000 -2020.0000 2459.0000 17.0000
7066.0000 -2025.0000 2457.0000 18.0000
6981.0000 -2019.0000 2443.0000 17.0000
6923.0000 -2020.0000 2437.0000 16.0000
6859.0000 -2019.0000 2430.0000 16.0000
6806.0000 -2022.0000 2426.0000 16.0000
6732.0000 -2017.0000 2413.0000 24.0000
6688.0000 -2022.0000 2411.0000 26.0000
6646.0000 -2027.0000 2410.0000 27.0000
6590.0000 -2027.0000 2404.0000 26.0000
6540.0000 -2029.0000 2399.0000 22.0000
6481.0000 -2028.0000 2391.0000 19.0000
6423.0000 -2027.0000 2382.0000 13.0000
6389.0000 -2033.0000 2382.0000 16.0000
6349.0000 -2038.0000 2380.0000 14.0000
6286.0000 -2035.0000 2369.0000 19.0000
6232.0000 -2034.0000 2361.0000 14.0000
6188.0000 -2036.0000 2357.0000 14.0000
6141.0000 -2037.0000 2350.0000 14.0000
6103.0000 -2041.0000 2348.0000 17.0000
6074.0000 -2048.0000 2348.0000 14.0000
6030.0000 -2049.0000 2343.0000 14.0000
5984.0000 -2049.0000 2336.0000 19.0000
5943.0000 -2052.0000 2331.0000 14.0000
5928.0000 -2063.0000 2336.0000 14.0000
5888.0000 -2065.0000 2331.0000 14.0000
5833.0000 -2061.0000 2320.0000 14.0000
5781.0000 -2058.0000 2309.0000 17.0000
5738.0000 -2059.0000 2302.0000 18.0000
5706.0000 -2062.0000 2299.0000 20.0000
5668.0000 -2064.0000 2294.0000 20.0000
5639.0000 -2069.0000 2292.0000 21.0000
5600.0000 -2070.0000 2285.0000 22.0000
5578.0000 -2077.0000 2286.0000 23.0000
5542.0000 -2079.0000 2280.0000 22.0000
5513.0000 -2083.0000 2277.0000 22.0000
5491.0000 -2089.0000 2276.0000 22.0000
5460.0000 -2093.0000 2272.0000 21.0000
5434.0000 -2097.0000 2270.0000 22.0000
5399.0000 -2098.0000 2263.0000 22.0000
5378.0000 -2105.0000 2262.0000 22.0000
5354.0000 -2110.0000 2260.0000 21.0000
5334.0000 -2116.0000 2260.0000 21.0000
5307.0000 -2120.0000 2256.0000 21.0000
5279.0000 -2123.0000 2251.0000 21.0000
5264.0000 -2131.0000 2252.0000 23.0000
5239.0000 -2134.0000 2248.0000 23.0000
5219.0000 -2140.0000 2246.0000 22.0000
5198.0000 -2146.0000 2244.0000 21.0000
5173.0000 -2149.0000 2240.0000 21.0000
5162.0000 -2158.0000 2241.0000 22.0000
5136.0000 -2161.0000 2237.0000 21.0000
5117.0000 -2167.0000 2234.0000 21.0000
5101.0000 -2173.0000 2233.0000 21.0000
5079.0000 -2177.0000 2229.0000 20.0000
5071.0000 -2187.0000 2231.0000 19.0000
5051.0000 -2191.0000 2228.0000 21.0000
5026.0000 -2194.0000 2222.0000 21.0000
5017.0000 -2203.0000 2223.0000 21.0000
5003.0000 -2209.0000 2222.0000 20.0000
4989.0000 -2216.0000 2220.0000 20.0000
4978.0000 -2223.0000 2220.0000 21.0000
4955.0000 -2226.0000 2214.0000 21.0000
4952.0000 -2237.0000 2217.0000 21.0000
4927.0000 -2238.0000 2210.0000 20.0000
4926.0000 -2250.0000 2213.0000 20.0000
4905.0000 -2252.0000 2208.0000 21.0000
4895.0000 -2259.0000 2206.0000 21.0000
4889.0000 -2269.0000 2207.0000 21.0000
4878.0000 -2275.0000 2206.0000 21.0000
4868.0000 -2282.0000 2204.0000 21.0000
4867.0000 -2293.0000 2206.0000 20.0000
4849.0000 -2296.0000 2201.0000 19.0000
4842.0000 -2304.0000 2200.0000 19.0000
4837.0000 -2313.0000 2200.0000 19.0000
4832.0000 -2322.0000 2200.0000 20.0000
4822.0000 -2328.0000 2198.0000 20.0000
4823.0000 -2339.0000 2200.0000 20.0000
4812.0000 -2345.0000 2196.0000 20.0000
4805.0000 -2352.0000 2194.0000 20.0000
4809.0000 -2364.0000 2197.0000 20.0000
4807.0000 -2373.0000 2198.0000 20.0000
4803.0000 -2381.0000 2197.0000 17.0000
4803.0000 -2392.0000 2198.0000 16.0000
4800.0000 -2400.0000 2196.0000 17.0000
4789.0000 -2404.0000 2192.0000 16.0000
4791.0000 -2415.0000 2193.0000 14.0000
4815.0000 -2436.0000 2204.0000 11.0000
4798.0000 -2437.0000 2196.0000 15.0000
4800.0000 -2447.0000 2196.0000 15.0000
4798.0000 -2456.0000 2195.0000 15.0000
4801.0000 -2466.0000 2195.0000 16.0000
4805.0000 -2477.0000 2197.0000 15.0000
4806.0000 -2486.0000 2196.0000 15.0000
4805.0000 -2494.0000 2194.0000 15.0000
4816.0000 -2508.0000 2197.0000 16.0000
4815.0000 -2515.0000 2195.0000 16.0000
4818.0000 -2525.0000 2195.0000 16.0000
4829.0000 -2539.0000 2198.0000 16.0000
4829.0000 -2546.0000 2196.0000 16.0000
4834.0000 -2557.0000 2196.0000 16.0000
4848.0000 -2571.0000 2199.0000 15.0000
4865.0000 -2588.0000 2204.0000 12.0000
4880.0000 -2602.0000 2208.0000 12.0000
4880.0000 -2609.0000 2205.0000 12.0000
4897.0000 -2625.0000 2209.0000 12.0000
4885.0000 -2625.0000 2200.0000 12.0000
4913.0000 -2646.0000 2209.0000 12.0000
4921.0000 -2656.0000 2208.0000 11.0000
4930.0000 -2667.0000 2209.0000 11.0000
4943.0000 -2680.0000 2210.0000 11.0000
4953.0000 -2691.0000 2210.0000 12.0000
4974.0000 -2708.0000 2215.0000 12.0000
4968.0000 -2710.0000 2207.0000 12.0000
5001.0000 -2732.0000 2216.0000 13.0000
5002.0000 -2738.0000 2212.0000 16.0000
5022.0000 -2753.0000 2215.0000 17.0000
5037.0000 -2766.0000 2216.0000 16.0000
5044.0000 -2774.0000 2213.0000 16.0000
5081.0000 -2798.0000 2223.0000 13.0000
5091.0000 -2807.0000 2221.0000 13.0000
5132.0000 -2833.0000 2233.0000 13.0000
5128.0000 -2834.0000 2224.0000 16.0000
5141.0000 -2845.0000 2223.0000 18.0000
5163.0000 -2860.0000 2226.0000 20.0000
5185.0000 -2874.0000 2228.0000 19.0000
5204.0000 -2887.0000 2229.0000 20.0000
5231.0000 -2905.0000 2232.0000 20.0000
5256.0000 -2920.0000 2235.0000 21.0000
5268.0000 -2929.0000 2232.0000 19.0000
5312.0000 -2955.0000 2243.0000 14.0000
5319.0000 -2960.0000 2237.0000 15.0000
5351.0000 -2979.0000 2242.0000 15.0000
5372.0000 -2991.0000 2242.0000 15.0000
5407.0000 -3011.0000 2248.0000 15.0000
5453.0000 -3037.0000 2258.0000 14.0000
5469.0000 -3046.0000 2255.0000 14.0000
5505.0000 -3066.0000 2260.0000 15.0000
5537.0000 -3083.0000 2263.0000 15.0000
5557.0000 -3093.0000 2262.0000 16.0000
5584.0000 -3107.0000 2263.0000 16.0000
5619.0000 -3126.0000 2267.0000 15.0000
5648.0000 -3140.0000 2268.0000 14.0000
5708.0000 -3172.0000 2281.0000 14.0000
5738.0000 -3187.0000 2282.0000 14.0000
5782.0000 -3209.0000 2289.0000 13.0000
5832.0000 -3234.0000 2297.0000 13.0000
5848.0000 -3240.0000 2292.0000 12.0000
5869.0000 -3248.0000 2288.0000 13.0000
5862.0000 -3242.0000 2274.0000 15.0000
5850.0000 -3231.0000 2258.0000 16.0000
5860.0000 -3233.0000 2250.0000 17.0000
5918.0000 -3261.0000 2260.0000 19.0000
5942.0000 -3269.0000 2256.0000 17.0000
5974.0000 -3283.0000 2256.0000 17.0000
6000.0000 -3292.0000 2254.0000 17.0000
6028.0000 -3302.0000 2251.0000 20.0000
6065.0000 -3317.0000 2252.0000 22.0000
6091.0000 -3326.0000 2249.0000 22.0000
6194.0000 -3376.0000 2273.0000 30.0000
6170.0000 -3356.0000 2251.0000 36.0000
6154.0000 -3341.0000 2232.0000 36.0000
6187.0000 -3352.0000 2230.0000 37.0000
6228.0000 -3368.0000 2231.0000 36.0000
6235.0000 -3364.0000 2220.0000 36.0000
6236.0000 -3357.0000 2206.0000 36.0000
6239.0000 -3351.0000 2193.0000 36.0000
6229.0000 -3338.0000 2176.0000 36.0000
6224.0000 -3327.0000 2160.0000 37.0000
6217.0000 -3315.0000 2143.0000 37.0000
6214.0000 -3304.0000 2128.0000 37.0000
6211.0000 -3294.0000 2113.0000 36.0000
6206.0000 -3283.0000 2097.0000 36.0000
6205.0000 -3273.0000 2082.0000 36.0000
6200.0000 -3261.0000 2067.0000 36.0000
6193.0000 -3247.0000 2050.0000 36.0000
6192.0000 -3237.0000 2035.0000 36.0000
6187.0000 -3225.0000 2019.0000 36.0000
6180.0000 -3211.0000 2003.0000 35.0000
6178.0000 -3199.0000 1988.0000 35.0000
6171.0000 -3185.0000 1971.0000 35.0000
6164.0000 -3171.0000 1955.0000 35.0000
6165.0000 -3161.0000 1941.0000 30.0000
6157.0000 -3145.0000 1924.0000 30.0000
6150.0000 -3131.0000 1907.0000 30.0000
6144.0000 -3116.0000 1891.0000 30.0000
6140.0000 -3103.0000 1876.0000 29.0000
6138.0000 -3090.0000 1861.0000 29.0000
6130.0000 -3074.0000 1844.0000 29.0000
6120.0000 -3057.0000 1827.0000 29.0000
6121.0000 -3046.0000 1813.0000 17.0000
6162.0000 -3053.0000 1811.0000 9.0000
6285.0000 -3102.0000 1832.0000 5.0000
6337.0000 -3115.0000 1833.0000 9.0000
6320.0000 -3093.0000 1813.0000 12.0000
6280.0000 -3060.0000 1787.0000 11.0000
6302.0000 -3058.0000 1779.0000 11.0000
6285.0000 -3036.0000 1759.0000 14.0000
6316.0000 -3037.0000 1753.0000 4.0000
6554.0000 -3138.0000 1805.0000 1.0000
9970.0000 -4751.0000 2722.0000 8.0000
10111.0000 -4796.0000 2737.0000 8.0000
10239.0000 -4833.0000 2748.0000 8.0000
10402.0000 -4887.0000 2769.0000 8.0000
10550.0000 -4932.0000 2784.0000 8.0000
10715.0000 -4984.0000 2803.0000 8.0000
10886.0000 -5039.0000 2823.0000 7.0000
11078.0000 -5102.0000 2847.0000 7.0000
11240.0000 -5150.0000 2864.0000 6.0000
11415.0000 -5202.0000 2883.0000 6.0000
11604.0000 -5261.0000 2904.0000 6.0000
11775.0000 -5310.0000 2921.0000 7.0000
11962.0000 -5365.0000 2940.0000 6.0000
12145.0000 -5418.0000 2959.0000 7.0000
12343.0000 -5475.0000 2979.0000 7.0000
12541.0000 -5532.0000 2999.0000 8.0000
12750.0000 -5593.0000 3021.0000 8.0000
12952.0000 -5649.0000 3041.0000 8.0000
13167.0000 -5709.0000 3062.0000 8.0000
13423.0000 -5786.0000 3092.0000 9.0000
13714.0000 -5877.0000 3129.0000 8.0000
13964.0000 -5949.0000 3157.0000 7.0000
14168.0000 -5999.0000 3172.0000 8.0000
14404.0000 -6061.0000 3194.0000 8.0000
14648.0000 -6126.0000 3216.0000 9.0000
14880.0000 -6184.0000 3236.0000 9.0000
15128.0000 -6248.0000 3258.0000 9.0000
15402.0000 -6320.0000 3284.0000 9.0000
15654.0000 -6382.0000 3304.0000 8.0000
15926.0000 -6451.0000 3329.0000 10.0000
16211.0000 -6523.0000 3354.0000 9.0000
16511.0000 -6600.0000 3382.0000 9.0000
16845.0000 -6688.0000 3415.0000 10.0000
17146.0000 -6761.0000 3441.0000 10.0000
17499.0000 -6853.0000 3476.0000 10.0000
17842.0000 -6939.0000 3508.0000 10.0000
18209.0000 -7032.0000 3542.0000 10.0000
18584.0000 -7126.0000 3577.0000 9.0000
19023.0000 -7242.0000 3624.0000 9.0000
19428.0000 -7343.0000 3662.0000 9.0000
19877.0000 -7457.0000 3707.0000 9.0000
20337.0000 -7574.0000 3752.0000 9.0000
20846.0000 -7705.0000 3804.0000 9.0000
21330.0000 -7825.0000 3851.0000 9.0000
21819.0000 -7943.0000 3896.0000 9.0000
22330.0000 -8067.0000 3944.0000 9.0000
22906.0000 -8211.0000 4001.0000 9.0000
23470.0000 -8347.0000 4053.0000 9.0000
24091.0000 -8501.0000 4115.0000 9.0000
24811.0000 -8684.0000 4190.0000 9.0000
25517.0000 -8859.0000 4261.0000 8.0000
26189.0000 -9018.0000 4323.0000 8.0000
26943.0000 -9201.0000 4396.0000 8.0000
27728.0000 -9391.0000 4473.0000 8.0000
28537.0000 -9583.0000 4550.0000 8.0000
15873.0000 -5285.0000 2501.0000 8.0000
15909.0000 -5251.0000 2477.0000 8.0000
15863.0000 -5191.0000 2441.0000 55.0000
15808.0000 -5127.0000 2404.0000 150.0000
15810.0000 -5083.0000 2375.0000 57.0000
15780.0000 -5027.0000 2342.0000 54.0000
15782.0000 -4983.0000 2314.0000 53.0000
15720.0000 -4917.0000 2276.0000 51.0000
15735.0000 -4877.0000 2250.0000 54.0000
15707.0000 -4823.0000 2219.0000 119.0000
12975.0000 -3946.0000 1810.0000 4.0000
12883.0000 -3881.0000 1774.0000 13.0000
12948.0000 -3863.0000 1760.0000 4.0000
16237.0000 -4796.0000 2179.0000 9.0000
16617.0000 -4860.0000 2202.0000 1.0000
0.0000 0.0000 0.0000 0.0000
0.0000 0.0000 0.0000 0.0000
0.0000 0.0000 0.0000 0.0000
0.0000 0.0000 0.0000 0.0000
0.0000 0.0000 0.0000 0.0000
0.0000 0.0000 0.0000 0.0000
0.0000 0.0000 0.0000 0.0000
0.0000 0.0000 0.0000 0.0000
17220.0000 -4584.0000 2020.0000 9.0000
17251.0000 -4541.0000 1996.0000 54.0000
17288.0000 -4500.0000 1971.0000 20.0000
17285.0000 -4448.0000 1943.0000 9.0000
17241.0000 -4386.0000 1910.0000 14.0000
17183.0000 -4321.0000 1876.0000 31.0000
17146.0000 -4260.0000 1845.0000 36.0000
17111.0000 -4201.0000 1813.0000 16.0000
17067.0000 -4140.0000 1782.0000 7.0000
51166.0000 -12261.0000 5263.0000 11.0000
51182.0000 -12112.0000 5184.0000 27.0000
51206.0000 -11966.0000 5106.0000 35.0000
51215.0000 -11816.0000 5027.0000 27.0000
51226.0000 -11666.0000 4949.0000 25.0000
51224.0000 -11515.0000 4871.0000 32.0000
51217.0000 -11361.0000 4792.0000 29.0000
51206.0000 -11206.0000 4713.0000 25.0000
51224.0000 -11057.0000 4637.0000 13.0000
51241.0000 -10909.0000 4562.0000 25.0000
51287.0000 -10766.0000 4489.0000 31.0000
51293.0000 -10614.0000 4413.0000 31.0000
51242.0000 -10451.0000 4333.0000 20.0000
51302.0000 -10311.0000 4263.0000 32.0000
51278.0000 -10153.0000 4186.0000 32.0000
51302.0000 -10004.0000 4113.0000 34.0000
51254.0000 -9842.0000 4034.0000 12.0000
51946.0000 -9821.0000 4015.0000 12.0000
52742.0000 -9813.0000 4000.0000 12.0000
53596.0000 -9812.0000 3988.0000 15.0000
54539.0000 -9821.0000 3981.0000 10.0000
55468.0000 -9822.0000 3970.0000 11.0000
56309.0000 -9804.0000 3952.0000 12.0000
57180.0000 -9784.0000 3933.0000 13.0000
0.0000 0.0000 0.0000 0.0000
0.0000 0.0000 0.0000 0.0000
0.0000 0.0000 0.0000 0.0000
0.0000 0.0000 0.0000 0.0000
0.0000 0.0000 0.0000 0.0000
0.0000 0.0000 0.0000 0.0000
0.0000 0.0000 0.0000 0.0000
0.0000 0.0000 0.0000 0.0000
0.0000 0.0000 0.0000 0.0000
0.0000 0.0000 0.0000 0.0000
0.0000 0.0000 0.0000 0.0000
0.0000 0.0000 0.0000 0.0000
0.0000 0.0000 0.0000 0.0000
0.0000 0.0000 0.0000 0.0000
0.0000 0.0000 0.0000 0.0000
0.0000 0.0000 0.0000 0.0000
0.0000 0.0000 0.0000 0.0000
0.0000 0.0000 0.0000 0.0000
0.0000 0.0000 0.0000 0.0000
24934.0000 -2768.0000 1052.0000 7.0000
24847.0000 -2684.0000 1018.0000 13.0000
25052.0000 -2631.0000 994.0000 5.0000
0.0000 0.0000 0.0000 0.0000
0.0000 0.0000 0.0000 0.0000
0.0000 0.0000 0.0000 0.0000
0.0000 0.0000 0.0000 0.0000
0.0000 0.0000 0.0000 0.0000
0.0000 0.0000 0.0000 0.0000
0.0000 0.0000 0.0000 0.0000
0.0000 0.0000 0.0000 0.0000
0.0000 0.0000 0.0000 0.0000
0.0000 0.0000 0.0000 0.0000
0.0000 0.0000 0.0000 0.0000
0.0000 0.0000 0.0000 0.0000
0.0000 0.0000 0.0000 0.0000
0.0000 0.0000 0.0000 0.0000
0.0000 0.0000 0.0000 0.0000
0.0000 0.0000 0.0000 0.0000
0.0000 0.0000 0.0000 0.0000
0.0000 0.0000 0.0000 0.0000
0.0000 0.0000 0.0000 0.0000
0.0000 0.0000 0.0000 0.0000
0.0000 0.0000 0.0000 0.0000
0.0000 0.0000 0.0000 0.0000
0.0000 0.0000 0.0000 0.0000
0.0000 0.0000 0.0000 0.0000
0.0000 0.0000 0.0000 0.0000
0.0000 0.0000 0.0000 0.0000
0.0000 0.0000 0.0000 0.0000
0.0000 0.0000 0.0000 0.0000
0.0000 0.0000 0.0000 0.0000
0.0000 0.0000 0.0000 0.0000
0.0000 0.0000 0.0000 0.0000
0.0000 0.0000 0.0000 0.0000
0.0000 0.0000 0.0000 0.0000
28889.0000 -52.0000 14.0000 27.0000
28873.0000 35.0000 -15.0000 32.0000
28875.0000 123.0000 -46.0000 31.0000
28921.0000 212.0000 -76.0000 32.0000
28891.0000 301.0000 -106.0000 32.0000
28903.0000 389.0000 -136.0000 28.0000
28926.0000 478.0000 -166.0000 32.0000
28901.0000 567.0000 -196.0000 29.0000
28895.0000 656.0000 -225.0000 29.0000
28915.0000 744.0000 -254.0000 32.0000
28905.0000 834.0000 -284.0000 28.0000
23335.0000 745.0000 -252.0000 1.0000
23228.0000 812.0000 -274.0000 2.0000
23296.0000 886.0000 -298.0000 2.0000
23228.0000 955.0000 -320.0000 6.0000
23256.0000 1028.0000 -343.0000 2.0000
22880.0000 1083.0000 -360.0000 1.0000
23009.0000 1160.0000 -385.0000 5.0000
23064.0000 1234.0000 -408.0000 12.0000
22946.0000 1299.0000 -428.0000 15.0000
22854.0000 1366.0000 -449.0000 15.0000
22796.0000 1432.0000 -469.0000 12.0000
22648.0000 1492.0000 -487.0000 6.0000
22814.0000 1575.0000 -512.0000 18.0000
22833.0000 1647.0000 -534.0000 22.0000
22810.0000 1717.0000 -555.0000 23.0000
22769.0000 1785.0000 -575.0000 24.0000
22765.0000 1855.0000 -596.0000 28.0000
22761.0000 1926.0000 -616.0000 29.0000
22770.0000 1998.0000 -637.0000 28.0000
22781.0000 2070.0000 -658.0000 26.0000
22773.0000 2140.0000 -678.0000 24.0000
22761.0000 2211.0000 -699.0000 24.0000
22785.0000 2285.0000 -720.0000 23.0000
22766.0000 2354.0000 -739.0000 23.0000
22765.0000 2426.0000 -759.0000 24.0000
22775.0000 2499.0000 -779.0000 22.0000
22762.0000 2568.0000 -799.0000 23.0000
22764.0000 2641.0000 -818.0000 23.0000
22769.0000 2713.0000 -838.0000 23.0000
22775.0000 2786.0000 -858.0000 23.0000
22769.0000 2856.0000 -877.0000 25.0000
22765.0000 2928.0000 -896.0000 26.0000
22231.0000 2930.0000 -893.0000 19.0000
22228.0000 3000.0000 -911.0000 25.0000
22485.0000 3106.0000 -940.0000 69.0000
22216.0000 3139.0000 -947.0000 21.0000
22337.0000 3228.0000 -971.0000 14.0000
22452.0000 3316.0000 -994.0000 8.0000
22470.0000 3389.0000 -1012.0000 8.0000
22525.0000 3470.0000 -1033.0000 64.0000
22430.0000 3527.0000 -1046.0000 5.0000
22560.0000 3620.0000 -1070.0000 12.0000
23773.0000 3890.0000 -1146.0000 23.0000
22443.0000 3744.0000 -1099.0000 31.0000
24300.0000 4132.0000 -1209.0000 7.0000
24315.0000 4213.0000 -1228.0000 7.0000
24294.0000 4288.0000 -1245.0000 8.0000
24262.0000 4359.0000 -1261.0000 7.0000
23380.0000 4276.0000 -1233.0000 8.0000
22865.0000 4256.0000 -1222.0000 7.0000
22532.0000 4267.0000 -1221.0000 76.0000
22525.0000 4339.0000 -1237.0000 85.0000
22518.0000 4409.0000 -1253.0000 79.0000
22505.0000 4480.0000 -1268.0000 76.0000
22516.0000 4556.0000 -1284.0000 81.0000
22530.0000 4632.0000 -1301.0000 80.0000
22529.0000 4704.0000 -1316.0000 80.0000
22513.0000 4774.0000 -1330.0000 69.0000
22531.0000 4851.0000 -1347.0000 77.0000
22511.0000 4921.0000 -1360.0000 40.0000
22506.0000 4994.0000 -1375.0000 76.0000
22480.0000 5060.0000 -1388.0000 43.0000
22526.0000 5145.0000 -1405.0000 82.0000
22527.0000 5219.0000 -1420.0000 77.0000
22538.0000 5296.0000 -1435.0000 71.0000
22509.0000 5362.0000 -1447.0000 52.0000
22503.0000 5435.0000 -1461.0000 84.0000
22526.0000 5515.0000 -1476.0000 86.0000
22513.0000 5586.0000 -1489.0000 71.0000
22528.0000 5664.0000 -1503.0000 54.0000
22530.0000 5738.0000 -1516.0000 87.0000
22531.0000 5813.0000 -1530.0000 86.0000
22487.0000 5876.0000 -1539.0000 78.0000
22498.0000 5954.0000 -1553.0000 37.0000
22514.0000 6032.0000 -1567.0000 79.0000
22518.0000 6108.0000 -1579.0000 81.0000
22526.0000 6185.0000 -1592.0000 78.0000
22535.0000 6263.0000 -1604.0000 76.0000
22507.0000 6329.0000 -1614.0000 58.0000
22530.0000 6411.0000 -1628.0000 42.0000
22517.0000 6483.0000 -1638.0000 81.0000
22497.0000 6552.0000 -1648.0000 80.0000
22484.0000 6623.0000 -1658.0000 46.0000
22528.0000 6712.0000 -1672.0000 80.0000
22536.0000 6789.0000 -1683.0000 78.0000
22518.0000 6860.0000 -1692.0000 80.0000
22542.0000 6942.0000 -1705.0000 83.0000
22541.0000 7018.0000 -1715.0000 69.0000
22524.0000 7088.0000 -1723.0000 85.0000
22547.0000 7172.0000 -1734.0000 88.0000
22545.0000 7247.0000 -1744.0000 89.0000
22559.0000 7328.0000 -1754.0000 87.0000
22561.0000 7404.0000 -1763.0000 84.0000
22532.0000 7471.0000 -1770.0000 37.0000
22584.0000 7564.0000 -1782.0000 84.0000
22594.0000 7644.0000 -1791.0000 82.0000
22599.0000 7722.0000 -1800.0000 77.0000
22582.0000 7793.0000 -1807.0000 79.0000
22581.0000 7869.0000 -1814.0000 73.0000
22580.0000 7945.0000 -1822.0000 79.0000
28980.0000 10296.0000 -2347.0000 18.0000
28970.0000 10390.0000 -2356.0000 20.0000
28958.0000 10484.0000 -2363.0000 14.0000
28972.0000 10588.0000 -2373.0000 18.0000
28951.0000 10679.0000 -2379.0000 19.0000
28961.0000 10780.0000 -2388.0000 13.0000
28969.0000 10882.0000 -2396.0000 17.0000
28920.0000 10962.0000 -2399.0000 20.0000
28958.0000 11076.0000 -2409.0000 11.0000
22411.0000 8647.0000 -1870.0000 1.0000
22258.0000 8664.0000 -1861.0000 12.0000
22253.0000 8738.0000 -1865.0000 15.0000
28973.0000 11476.0000 -2434.0000 21.0000
23481.0000 9379.0000 -1977.0000 24.0000
23308.0000 9390.0000 -1966.0000 11.0000
23071.0000 9373.0000 -1950.0000 12.0000
22886.0000 9376.0000 -1937.0000 13.0000
22760.0000 9403.0000 -1929.0000 25.0000
22749.0000 9474.0000 -1932.0000 25.0000
22336.0000 9379.0000 -1899.0000 10.0000
22232.0000 9410.0000 -1891.0000 23.0000
22756.0000 9710.0000 -1937.0000 25.0000
22747.0000 9782.0000 -1938.0000 25.0000
22749.0000 9861.0000 -1940.0000 24.0000
22741.0000 9935.0000 -1940.0000 25.0000
22748.0000 10015.0000 -1941.0000 26.0000
22756.0000 10095.0000 -1942.0000 26.0000
22737.0000 10164.0000 -1941.0000 26.0000
22741.0000 10243.0000 -1941.0000 25.0000
22738.0000 10319.0000 -1940.0000 27.0000
22735.0000 10395.0000 -1938.0000 26.0000
22743.0000 10476.0000 -1938.0000 26.0000
22733.0000 10547.0000 -1936.0000 26.0000
22753.0000 10633.0000 -1935.0000 2.0000
22778.0000 10721.0000 -1935.0000 9.0000
22777.0000 10798.0000 -1933.0000 24.0000
22600.0000 10789.0000 -1915.0000 24.0000
22514.0000 10824.0000 -1905.0000 33.0000
22763.0000 11020.0000 -1922.0000 7.0000
22779.0000 11103.0000 -1920.0000 2.0000
28909.0000 14188.0000 -2431.0000 20.0000
28923.0000 14290.0000 -2427.0000 29.0000
28881.0000 14366.0000 -2417.0000 31.0000
28881.0000 14461.0000 -2411.0000 20.0000
28917.0000 14574.0000 -2408.0000 28.0000
28918.0000 14670.0000 -2400.0000 28.0000
28930.0000 14771.0000 -2393.0000 21.0000
28932.0000 14867.0000 -2385.0000 31.0000
28902.0000 14947.0000 -2373.0000 30.0000
28912.0000 15045.0000 -2366.0000 20.0000
28925.0000 15146.0000 -2357.0000 32.0000
28886.0000 15219.0000 -2343.0000 29.0000
28888.0000 15314.0000 -2333.0000 22.0000
28902.0000 15413.0000 -2324.0000 31.0000
28851.0000 15478.0000 -2308.0000 31.0000
28841.0000 15565.0000 -2295.0000 24.0000
28867.0000 15671.0000 -2285.0000 29.0000
28845.0000 15751.0000 -2270.0000 30.0000
28846.0000 15841.0000 -2258.0000 23.0000
28870.0000 15944.0000 -2245.0000 28.0000
28869.0000 16034.0000 -2231.0000 32.0000
28833.0000 16104.0000 -2213.0000 28.0000
28869.0000 16213.0000 -2202.0000 28.0000
28838.0000 16284.0000 -2183.0000 33.0000
28823.0000 16364.0000 -2166.0000 30.0000
28840.0000 16461.0000 -2150.0000 26.0000
28845.0000 16550.0000 -2135.0000 34.0000
28817.0000 16620.0000 -2115.0000 32.0000
28804.0000 16699.0000 -2096.0000 24.0000
28839.0000 16805.0000 -2079.0000 33.0000
28799.0000 16867.0000 -2057.0000 35.0000
28784.0000 16942.0000 -2037.0000 34.0000
28816.0000 17043.0000 -2020.0000 33.0000
28813.0000 17125.0000 -1999.0000 39.0000
28787.0000 17192.0000 -1976.0000 35.0000
28795.0000 17278.0000 -1955.0000 23.0000
28819.0000 17372.0000 -1936.0000 34.0000
28805.0000 17444.0000 -1913.0000 36.0000
28758.0000 17495.0000 -1887.0000 28.0000
28802.0000 17600.0000 -1866.0000 25.0000
28801.0000 17678.0000 -1842.0000 34.0000
28745.0000 17719.0000 -1815.0000 33.0000
28757.0000 17803.0000 -1791.0000 23.0000
28760.0000 17881.0000 -1766.0000 26.0000
28755.0000 17952.0000 -1740.0000 33.0000
28740.0000 18016.0000 -1714.0000 29.0000
28735.0000 18085.0000 -1687.0000 21.0000
28756.0000 18170.0000 -1661.0000 26.0000
28757.0000 18242.0000 -1634.0000 34.0000
28716.0000 18285.0000 -1605.0000 32.0000
28724.0000 18359.0000 -1577.0000 24.0000
28732.0000 18433.0000 -1549.0000 27.0000
28728.0000 18497.0000 -1519.0000 34.0000
28707.0000 18549.0000 -1490.0000 35.0000
28679.0000 18596.0000 -1458.0000 31.0000
28691.0000 18668.0000 -1428.0000 24.0000
28711.0000 18744.0000 -1398.0000 36.0000
28674.0000 18781.0000 -1367.0000 39.0000
28672.0000 18840.0000 -1335.0000 38.0000
28665.0000 18895.0000 -1302.0000 26.0000
28660.0000 18950.0000 -1269.0000 24.0000
28651.0000 19001.0000 -1236.0000 31.0000
28665.0000 19066.0000 -1205.0000 35.0000
28642.0000 19105.0000 -1170.0000 28.0000
28626.0000 19148.0000 -1136.0000 21.0000
28618.0000 19195.0000 -1101.0000 19.0000
28662.0000 19276.0000 -1068.0000 21.0000
28651.0000 19317.0000 -1034.0000 25.0000
28635.0000 19355.0000 -998.0000 35.0000
28626.0000 19396.0000 -962.0000 32.0000
28612.0000 19433.0000 -925.0000 27.0000
28607.0000 19473.0000 -890.0000 21.0000
28619.0000 19525.0000 -854.0000 20.0000
28608.0000 19559.0000 -817.0000 24.0000
28622.0000 19610.0000 -780.0000 26.0000
28617.0000 19645.0000 -741.0000 35.0000
28593.0000 19665.0000 -704.0000 33.0000
28578.0000 19691.0000 -666.0000 27.0000
28589.0000 19734.0000 -628.0000 22.0000
28592.0000 19769.0000 -589.0000 19.0000
28608.0000 19812.0000 -551.0000 20.0000
28622.0000 19852.0000 -514.0000 22.0000
28630.0000 19887.0000 -475.0000 22.0000
28644.0000 19924.0000 -435.0000 22.0000
28639.0000 19947.0000 -396.0000 20.0000
28596.0000 19941.0000 -357.0000 21.0000
28583.0000 19954.0000 -317.0000 22.0000
28545.0000 19949.0000 -277.0000 24.0000
28527.0000 19956.0000 -238.0000 23.0000
28531.0000 19977.0000 -198.0000 23.0000
28506.0000 19977.0000 -158.0000 21.0000
28516.0000 19998.0000 -117.0000 21.0000
28510.0000 20008.0000 -77.0000 20.0000
28509.0000 20020.0000 -38.0000 16.0000
28525.0000 20041.0000 2.0000 15.0000
28530.0000 20053.0000 43.0000 15.0000
28498.0000 20038.0000 83.0000 15.0000
28506.0000 20050.0000 122.0000 14.0000
28508.0000 20055.0000 163.0000 15.0000
28503.0000 20054.0000 204.0000 14.0000
28489.0000 20045.0000 245.0000 14.0000
28508.0000 20058.0000 286.0000 15.0000
28496.0000 20047.0000 324.0000 14.0000
28474.0000 20028.0000 365.0000 16.0000
28460.0000 20013.0000 405.0000 18.0000
28451.0000 19999.0000 446.0000 20.0000
28461.0000 19998.0000 486.0000 21.0000
28463.0000 19989.0000 525.0000 22.0000
28439.0000 19961.0000 565.0000 23.0000
28445.0000 19951.0000 605.0000 23.0000
28442.0000 19935.0000 645.0000 26.0000
28431.0000 19911.0000 683.0000 32.0000
28449.0000 19906.0000 723.0000 32.0000
28437.0000 19878.0000 762.0000 33.0000
28435.0000 19855.0000 802.0000 31.0000
28448.0000 19842.0000 839.0000 26.0000
28438.0000 19811.0000 878.0000 22.0000
28425.0000 19776.0000 917.0000 19.0000
28418.0000 19745.0000 955.0000 14.0000
28408.0000 19709.0000 993.0000 20.0000
28403.0000 19676.0000 1029.0000 22.0000
28401.0000 19643.0000 1067.0000 32.0000
28412.0000 19618.0000 1105.0000 35.0000
28414.0000 19584.0000 1143.0000 33.0000
28424.0000 19556.0000 1178.0000 25.0000
28418.0000 19515.0000 1215.0000 22.0000
28406.0000 19468.0000 1251.0000 14.0000
28381.0000 19411.0000 1286.0000 20.0000
28375.0000 19366.0000 1320.0000 24.0000
28380.0000 19327.0000 1356.0000 32.0000
28405.0000 19300.0000 1392.0000 35.0000
28381.0000 19238.0000 1426.0000 25.0000
28396.0000 19202.0000 1459.0000 18.0000
28374.0000 19139.0000 1492.0000 19.0000
15696.0000 10560.0000 844.0000 3.0000
15681.0000 10523.0000 862.0000 6.0000
15655.0000 10476.0000 879.0000 10.0000
15650.0000 10444.0000 895.0000 11.0000
15642.0000 10409.0000 913.0000 15.0000
15646.0000 10381.0000 931.0000 16.0000
15640.0000 10346.0000 948.0000 18.0000
15646.0000 10318.0000 965.0000 18.0000
15664.0000 10298.0000 982.0000 17.0000
15668.0000 10268.0000 999.0000 17.0000
15659.0000 10228.0000 1015.0000 15.0000
15638.0000 10180.0000 1030.0000 15.0000
15631.0000 10140.0000 1045.0000 19.0000
15638.0000 10110.0000 1061.0000 18.0000
15646.0000 10079.0000 1077.0000 19.0000
15655.0000 10049.0000 1093.0000 19.0000
15656.0000 10013.0000 1108.0000 18.0000
15666.0000 9982.0000 1123.0000 18.0000
15651.0000 9934.0000 1137.0000 15.0000
15631.0000 9883.0000 1149.0000 17.0000
15627.0000 9841.0000 1163.0000 18.0000
15634.0000 9807.0000 1176.0000 19.0000
15645.0000 9774.0000 1191.0000 19.0000
15647.0000 9734.0000 1204.0000 18.0000
15659.0000 9701.0000 1218.0000 18.0000
15661.0000 9661.0000 1230.0000 15.0000
15620.0000 9594.0000 1239.0000 18.0000
15613.0000 9547.0000 1251.0000 17.0000
15613.0000 9505.0000 1263.0000 20.0000
15635.0000 9475.0000 1275.0000 20.0000
15659.0000 9447.0000 1289.0000 17.0000
15644.0000 9393.0000 1298.0000 17.0000
15627.0000 9339.0000 1308.0000 15.0000
15617.0000 9288.0000 1318.0000 18.0000
15618.0000 9244.0000 1327.0000 18.0000
15618.0000 9199.0000 1337.0000 19.0000
15637.0000 9164.0000 1348.0000 17.0000
15666.0000 9136.0000 1360.0000 16.0000
15632.0000 9070.0000 1366.0000 15.0000
15628.0000 9021.0000 1375.0000 16.0000
15616.0000 8967.0000 1382.0000 17.0000
15637.0000 8931.0000 1392.0000 18.0000
15654.0000 8894.0000 1402.0000 19.0000
15660.0000 8850.0000 1410.0000 17.0000
15646.0000 8794.0000 1416.0000 15.0000
15633.0000 8738.0000 1422.0000 16.0000
15618.0000 8681.0000 1428.0000 17.0000
15646.0000 8649.0000 1437.0000 20.0000
15661.0000 8608.0000 1445.0000 19.0000
15663.0000 8559.0000 1451.0000 17.0000
15640.0000 8497.0000 1455.0000 14.0000
15622.0000 8437.0000 1459.0000 16.0000
15622.0000 8387.0000 1464.0000 19.0000
15650.0000 8353.0000 1472.0000 17.0000
15655.0000 8305.0000 1477.0000 17.0000
15658.0000 8256.0000 1482.0000 17.0000
15632.0000 8192.0000 1484.0000 16.0000
15623.0000 8137.0000 1487.0000 18.0000
15632.0000 8090.0000 1492.0000 22.0000
15660.0000 8054.0000 1498.0000 21.0000
15663.0000 8004.0000 1502.0000 20.0000
15652.0000 7947.0000 1503.0000 15.0000
15635.0000 7887.0000 1505.0000 18.0000
15636.0000 7836.0000 1508.0000 19.0000
15653.0000 7792.0000 1512.0000 24.0000
15666.0000 7748.0000 1515.0000 18.0000
15675.0000 7700.0000 1518.0000 16.0000
15642.0000 7631.0000 1516.0000 15.0000
15638.0000 7577.0000 1517.0000 17.0000
15649.0000 7531.0000 1519.0000 20.0000
15660.0000 7483.0000 1521.0000 21.0000
15666.0000 7434.0000 1523.0000 19.0000
15654.0000 7375.0000 1522.0000 15.0000
15637.0000 7315.0000 1521.0000 19.0000
15643.0000 7265.0000 1521.0000 23.0000
15661.0000 7220.0000 1523.0000 20.0000
15670.0000 7172.0000 1524.0000 18.0000
15665.0000 7116.0000 1523.0000 14.0000
15648.0000 7056.0000 1520.0000 16.0000
15638.0000 6998.0000 1518.0000 18.0000
15656.0000 6954.0000 1519.0000 21.0000
15677.0000 6909.0000 1519.0000 19.0000
15681.0000 6859.0000 1518.0000 16.0000
15665.0000 6798.0000 1514.0000 13.0000
15656.0000 6741.0000 1512.0000 19.0000
15661.0000 6690.0000 1510.0000 20.0000
15680.0000 6645.0000 1509.0000 16.0000
15699.0000 6600.0000 1508.0000 13.0000
15689.0000 6542.0000 1504.0000 12.0000
15648.0000 6471.0000 1497.0000 16.0000
15674.0000 6429.0000 1497.0000 19.0000
15699.0000 6385.0000 1496.0000 19.0000
15690.0000 6329.0000 1491.0000 19.0000
15703.0000 6281.0000 1489.0000 12.0000
15676.0000 6216.0000 1482.0000 15.0000
15662.0000 6157.0000 1477.0000 19.0000
15683.0000 6113.0000 1474.0000 18.0000
15698.0000 6065.0000 1471.0000 16.0000
15703.0000 6014.0000 1467.0000 15.0000
15686.0000 5954.0000 1460.0000 12.0000
15679.0000 5898.0000 1454.0000 16.0000
15679.0000 5845.0000 1449.0000 18.0000
15700.0000 5799.0000 1446.0000 20.0000
15716.0000 5752.0000 1442.0000 18.0000
15695.0000 5692.0000 1434.0000 14.0000
15669.0000 5629.0000 1426.0000 18.0000
15672.0000 5577.0000 1420.0000 20.0000
15707.0000 5536.0000 1417.0000 21.0000
15712.0000 5485.0000 1411.0000 18.0000
15718.0000 5434.0000 1405.0000 13.0000
15699.0000 5374.0000 1396.0000 15.0000
15689.0000 5318.0000 1389.0000 17.0000
15713.0000 5273.0000 1384.0000 18.0000
15724.0000 5224.0000 1377.0000 17.0000
15723.0000 5171.0000 1370.0000 14.0000
15703.0000 5111.0000 1361.0000 13.0000
15707.0000 5059.0000 1353.0000 19.0000
15713.0000 5009.0000 1346.0000 18.0000
15740.0000 4965.0000 1340.0000 22.0000
15742.0000 4912.0000 1332.0000 18.0000
15735.0000 4857.0000 1323.0000 12.0000
15715.0000 4798.0000 1313.0000 16.0000
15713.0000 4746.0000 1304.0000 18.0000
15739.0000 4701.0000 1298.0000 20.0000
15755.0000 4653.0000 1291.0000 17.0000
15749.0000 4599.0000 1281.0000 11.0000
15727.0000 4540.0000 1270.0000 14.0000
15717.0000 4485.0000 1260.0000 17.0000
15739.0000 4439.0000 1252.0000 18.0000
15763.0000 4393.0000 1245.0000 17.0000
15778.0000 4346.0000 1236.0000 16.0000
15738.0000 4283.0000 1223.0000 11.0000
15737.0000 4230.0000 1213.0000 17.0000
15727.0000 4175.0000 1203.0000 17.0000
15764.0000 4133.0000 1195.0000 20.0000
15767.0000 4082.0000 1185.0000 19.0000
15771.0000 4031.0000 1175.0000 12.0000
15745.0000 3973.0000 1163.0000 16.0000
15725.0000 3916.0000 1151.0000 21.0000
15754.0000 3872.0000 1142.0000 18.0000
15777.0000 3826.0000 1133.0000 16.0000
15777.0000 3774.0000 1122.0000 14.0000
15757.0000 3717.0000 1109.0000 13.0000
15751.0000 3664.0000 1098.0000 20.0000
15759.0000 3615.0000 1087.0000 18.0000
15784.0000 3569.0000 1077.0000 22.0000
15786.0000 3518.0000 1066.0000 19.0000
15775.0000 3465.0000 1053.0000 12.0000
15760.0000 3411.0000 1040.0000 19.0000
15761.0000 3359.0000 1029.0000 22.0000
15790.0000 3314.0000 1019.0000 22.0000
15800.0000 3265.0000 1007.0000 24.0000
15800.0000 3215.0000 995.0000 21.0000
15775.0000 3159.0000 981.0000 14.0000
15761.0000 3105.0000 968.0000 22.0000
15789.0000 3059.0000 957.0000 24.0000
15809.0000 3013.0000 945.0000 27.0000
15822.0000 2965.0000 934.0000 28.0000
15808.0000 2911.0000 920.0000 16.0000
15788.0000 2857.0000 906.0000 20.0000
15793.0000 2807.0000 893.0000 25.0000
15811.0000 2760.0000 881.0000 25.0000
15835.0000 2714.0000 869.0000 28.0000
15851.0000 2666.0000 857.0000 21.0000
15802.0000 2607.0000 840.0000 20.0000
15811.0000 2558.0000 827.0000 29.0000
15823.0000 2510.0000 814.0000 24.0000
15831.0000 2461.0000 801.0000 25.0000
15856.0000 2414.0000 789.0000 25.0000
15829.0000 2360.0000 773.0000 16.0000
15805.0000 2307.0000 758.0000 19.0000
15823.0000 2259.0000 745.0000 19.0000
15831.0000 2210.0000 731.0000 17.0000
15837.0000 2161.0000 717.0000 19.0000
15836.0000 2112.0000 703.0000 16.0000
15837.0000 2062.0000 688.0000 12.0000
15840.0000 2012.0000 674.0000 11.0000
15837.0000 1962.0000 659.0000 10.0000
15843.0000 1914.0000 645.0000 5.0000
15836.0000 1863.0000 630.0000 3.0000
15850.0000 1815.0000 615.0000 1.0000
15963.0000 1778.0000 605.0000 0.0000
22594.0000 2446.0000 834.0000 23.0000
22596.0000 2376.0000 813.0000 21.0000
22620.0000 2309.0000 793.0000 21.0000
22618.0000 2238.0000 771.0000 21.0000
22597.0000 2165.0000 748.0000 20.0000
22636.0000 2099.0000 727.0000 24.0000
22627.0000 2028.0000 705.0000 26.0000
22645.0000 1959.0000 683.0000 28.0000
22651.0000 1889.0000 660.0000 28.0000
22648.0000 1819.0000 638.0000 28.0000
22649.0000 1749.0000 615.0000 21.0000
22750.0000 1687.0000 595.0000 8.0000
22588.0000 1605.0000 568.0000 5.0000
22586.0000 1534.0000 544.0000 5.0000
22839.0000 1482.0000 527.0000 11.0000
28777.0000 1778.0000 635.0000 27.0000
28758.0000 1689.0000 605.0000 34.0000
28798.0000 1602.0000 575.0000 30.0000
28786.0000 1513.0000 545.0000 29.0000
28780.0000 1425.0000 515.0000 31.0000
28819.0000 1338.0000 485.0000 30.0000
28819.0000 1250.0000 454.0000 27.0000
28804.0000 1160.0000 423.0000 33.0000
28828.0000 1074.0000 393.0000 28.0000
23029.0000 787.0000 289.0000 9.0000
23000.0000 716.0000 264.0000 11.0000
22947.0000 644.0000 238.0000 9.0000
22939.0000 574.0000 213.0000 5.0000
22985.0000 505.0000 188.0000 1.0000
28876.0000 547.0000 205.0000 28.0000
28881.0000 459.0000 173.0000 33.0000
28868.0000 372.0000 141.0000 30.0000
28880.0000 284.0000 109.0000 27.0000
28893.0000 196.0000 76.0000 30.0000
28854.0000 108.0000 44.0000 24.0000
28855.0000 20.0000 11.0000 32.0000
28902.0000 -66.0000 -21.0000 4.0000
0.0000 0.0000 0.0000 0.0000
0.0000 0.0000 0.0000 0.0000
0.0000 0.0000 0.0000 0.0000
0.0000 0.0000 0.0000 0.0000
0.0000 0.0000 0.0000 0.0000
0.0000 0.0000 0.0000 0.0000
0.0000 0.0000 0.0000 0.0000
0.0000 0.0000 0.0000 0.0000
0.0000 0.0000 0.0000 0.0000
0.0000 0.0000 0.0000 0.0000
0.0000 0.0000 0.0000 0.0000
0.0000 0.0000 0.0000 0.0000
0.0000 0.0000 0.0000 0.0000
0.0000 0.0000 0.0000 0.0000
60.0000 -2.0000 -1.0000 0.0000
52.0000 -2.0000 -1.0000 0.0000
0.0000 0.0000 0.0000 0.0000
0.0000 0.0000 0.0000 0.0000
0.0000 0.0000 0.0000 0.0000
0.0000 0.0000 0.0000 0.0000
63.0000 -4.0000 -1.0000 0.0000
0.0000 0.0000 0.0000 0.0000
60.0000 -4.0000 -1.0000 0.0000
0.0000 0.0000 0.0000 0.0000
0.0000 0.0000 0.0000 0.0000
0.0000 0.0000 0.0000 0.0000
63.0000 -5.0000 -2.0000 0.0000
0.0000 0.0000 0.0000 0.0000
50.0000 -4.0000 -1.0000 0.0000
0.0000 0.0000 0.0000 0.0000
0.0000 0.0000 0.0000 0.0000
0.0000 0.0000 0.0000 0.0000
0.0000 0.0000 0.0000 0.0000
0.0000 0.0000 0.0000 0.0000
0.0000 0.0000 0.0000 0.0000
0.0000 0.0000 0.0000 0.0000
0.0000 0.0000 0.0000 0.0000
0.0000 0.0000 0.0000 0.0000
0.0000 0.0000 0.0000 0.0000
0.0000 0.0000 0.0000 0.0000
0.0000 0.0000 0.0000 0.0000
0.0000 0.0000 0.0000 0.0000
0.0000 0.0000 0.0000 0.0000
0.0000 0.0000 0.0000 0.0000
0.0000 0.0000 0.0000 0.0000
0.0000 0.0000 0.0000 0.0000
0.0000 0.0000 0.0000 0.0000
0.0000 0.0000 0.0000 0.0000
0.0000 0.0000 0.0000 0.0000
0.0000 0.0000 0.0000 0.0000
57.0000 -8.0000 -3.0000 0.0000
0.0000 0.0000 0.0000 0.0000
0.0000 0.0000 0.0000 0.0000
51.0000 -8.0000 -3.0000 0.0000
0.0000 0.0000 0.0000 0.0000
0.0000 0.0000 0.0000 0.0000
0.0000 0.0000 0.0000 0.0000
0.0000 0.0000 0.0000 0.0000
0.0000 0.0000 0.0000 0.0000
0.0000 0.0000 0.0000 0.0000
0.0000 0.0000 0.0000 0.0000
0.0000 0.0000 0.0000 0.0000
0.0000 0.0000 0.0000 0.0000
0.0000 0.0000 0.0000 0.0000
0.0000 0.0000 0.0000 0.0000
0.0000 0.0000 0.0000 0.0000
0.0000 0.0000 0.0000 0.0000
0.0000 0.0000 0.0000 0.0000
0.0000 0.0000 0.0000 0.0000
0.0000 0.0000 0.0000 0.0000
0.0000 0.0000 0.0000 0.0000
0.0000 0.0000 0.0000 0.0000
0.0000 0.0000 0.0000 0.0000
0.0000 0.0000 0.0000 0.0000
0.0000 0.0000 0.0000 0.0000
0.0000 0.0000 0.0000 0.0000
0.0000 0.0000 0.0000 0.0000
0.0000 0.0000 0.0000 0.0000
0.0000 0.0000 0.0000 0.0000
0.0000 0.0000 0.0000 0.0000
0.0000 0.0000 0.0000 0.0000
0.0000 0.0000 0.0000 0.0000
0.0000 0.0000 0.0000 0.0000
0.0000 0.0000 0.0000 0.0000
0.0000 0.0000 0.0000 0.0000
0.0000 0.0000 0.0000 0.0000
0.0000 0.0000 0.0000 0.0000
0.0000 0.0000 0.0000 0.0000
0.0000 0.0000 0.0000 0.0000
0.0000 0.0000 0.0000 0.0000
0.0000 0.0000 0.0000 0.0000
0.0000 0.0000 0.0000 0.0000
0.0000 0.0000 0.0000 0.0000
0.0000 0.0000 0.0000 0.0000
0.0000 0.0000 0.0000 0.0000
0.0000 0.0000 0.0000 0.0000
0.0000 0.0000 0.0000 0.0000
0.0000 0.0000 0.0000 0.0000
0.0000 0.0000 0.0000 0.0000
0.0000 0.0000 0.0000 0.0000
0.0000 0.0000 0.0000 0.0000
0.0000 0.0000 0.0000 0.0000
0.0000 0.0000 0.0000 0.0000
0.0000 0.0000 0.0000 0.0000
0.0000 0.0000 0.0000 0.0000
0.0000 0.0000 0.0000 0.0000
0.0000 0.0000 0.0000 0.0000
0.0000 0.0000 0.0000 0.0000
